46.80651,46.38627,51.88915,45.9905,42.97622,29.37983,57.05765,71.3707,70.40093,59.94027,55.04792,47.70565,35.59776,31.12226,33.93196,46.35909,53.27452,60.19209,60.43896,58.00209,51.87754,38.62742,29.30546,15.712,31.2466,47.06455,30.86049,10.65418,14.52626,21.50578,25.88997,16.81737,17.89682,36.72136,29.66905,1.69177,25.75512,45.14706,47.11953,43.10068,39.36322,42.88854,50.05893,40.79986,21.56649,17.32463,29.45189,34.28257,31.95512,22.95187,15.80612,39.35722,50.22412,54.01835,53.53427,39.28938,24.17549,18.77269,36.4314,51.86317,58.09986,60.68482,59.26259,55.3336,48.39796,47.56757,31.37508,19.02147,44.44245,52.59644,50.28974,36.44484,44.61364,49.76961,47.39075,45.39037,43.25031,35.16612,39.40409,36.87194,25.04273,36.67898,43.91732,55.47848,59.51896,57.85423,54.31794,35.95339,29.54198,18.86304,22.01015,38.35353,57.33914,59.73695,51.56563,57.24101,59.05396,49.36224,27.68789,12.91315,21.86799,22.82995,29.74599,27.40953,22.93196,27.98483,36.89824,45.85109,49.01949,49.8732,47.78304,47.33973,48.24473,40.81136,47.13417,47.66104,39.88557,29.91737,8.898059,1.455622,0,0,0,0,0,0,0,0,0,0,0,0,0,0,0,0,0,0,0,0,0,0,0,0,0,0,0,0,0,0,0,0,0,0,0,0,0,0,0,0,0,0,0,0,0,0,0,0,0,0,0,0,0,0,0,0,0,0,0,0,0,0,0,0,0,0,0,3.145103,5.449422,13.76315,26.46891,14.05626,8.627644,10.64425,11.24938,18.46809,18.69912,14.59822,12.39401,8.950498,8.9259,25.8042,42.68207,45.94418,44.66362,44.13094,46.80337,61.66567,61.25351,14.27745,52.66663,59.61203,50.92255,50.8241,59.45062,58.61944,51.23362,52.0499,52.67066,50.54856,52.72989,56.39157,56.53939,60.09717,60.58094,64.82188,62.73909,45.15222,13.69435,43.62046,50.69451,55.72141,40.25893,35.11501,59.12151,68.34555,64.73299,63.50167,62.88683,58.31889,47.39464,32.68265,29.84283,52.62807,36.466,11.04899,11.46089,27.35865,57.60549,60.08448,50.94635,32.32803,16.70923,0,0,0,0,0,0,0,0,0,0,0,0,0,0,0,0,0,0,0,0,0,0,0,0,0,0,0,0,0,0,0,0,0,0,0,0,0,0,0,0,0,0,0,0,0,0,0,0,0,0,0,0,0,0,0,0,0,0,0,0,0,0,0,0,0,0,0,0,0,0,0,0,0,0,0,0,0,0,0,0,0,0,0,0,0,0,0,0,0,0,0,2.467359,18.65802,22.62031,25.97651,27.94491,29.65899,37.93718,47.26563,50.82219,44.27432,45.0904,42.80472,48.2805,51.80898,58.18095,63.59174,65.02221,64.94851,63.50499,55.02175,42.95242,38.57218,50.75858,43.57454,40.94079,22.72759,23.91585,37.79593,46.51712,45.90744,47.31366,52.4594,54.57661,56.57999,59.39918,61.48586,67.06847,58.38848,27.07886,8.683943,25.26189,48.20116,51.54794,42.3799,27.95046,16.34336,23.44917,34.89108,16.98556,28.30708,32.99568,35.17688,41.15746,44.01028,24.11934,34.44808,38.3672,36.49636,49.82381,51.12848,49.0252,51.62046,49.44231,34.76904,14.91215,4.499018,1.803634,0,0,0,0,0,0,0,0,0,0,0,0,0,0,7.67721,32.15182,44.0329,54.96152,66.30284,71.54184,71.29222,69.40891,69.7281,67.21461,67.26709,68.72769,66.57801,67.71579,72.62231,73.12307,72.46645,72.48152,71.01672,70.83895,70.35974,68.80693,69.87088,69.5222,64.67657,60.31901,60.47208,58.70966,55.59492,56.31124,46.3163,42.01361,28.00181,36.38308,48.47057,51.69425,46.39894,34.36646,21.22024,13.62469,13.544,17.10997,13.51739,18.84852,30.88337,29.34441,17.36415,21.15126,27.93005,8.399943,13.06139,16.37114,30.43577,41.54063,49.98902,51.46241,49.13564,48.60418,45.79491,31.81253,17.74768,12.80578,23.29168
50.62894,57.30565,58.66156,44.00909,45.59929,45.32395,60.64553,72.14202,69.88265,54.41973,48.00843,39.12171,31.64441,39.53841,15.93608,34.77793,52.11049,57.08535,59.01977,60.20111,54.69202,44.19204,32.33024,16.22436,42.49536,53.84647,38.59806,31.12474,25.70988,23.21161,10.38133,12.56227,40.58607,43.04048,23.657,19.85691,24.4929,29.55087,41.46186,36.68264,46.64899,55.9593,54.66571,33.34612,12.98292,6.502794,8.731494,22.09719,12.85041,15.55193,45.89638,49.88428,52.96891,52.42159,43.88001,38.48688,35.48344,40.89492,55.91602,61.72048,62.64415,64.04004,64.64439,63.07217,58.04786,57.40874,53.61293,46.18124,52.04658,49.01219,48.07175,43.59298,47.50172,45.69539,34.85205,44.24064,44.76379,45.02498,51.66069,53.34839,38.41816,38.578,45.64169,57.37509,60.3774,58.05576,56.31247,39.65174,17.0804,13.5131,16.81675,31.37975,47.81365,57.66912,53.66348,55.13632,52.2512,31.4601,13.69496,25.53301,21.91199,9.608033,14.62389,19.63012,16.66906,21.96091,29.52208,41.07603,43.78033,43.85476,43.19919,43.23397,40.36242,37.4364,42.20694,38.47498,35.89834,35.11133,21.90951,10.95208,3.540607,0,0,0,0,0,0,0,0,0,0,0,0,0,0,0,0,0,0,0,0,0,0,0,0,0,0,0,0,0,0,0,0,0,0,0,0,0,0,0,0,0,0,0,0,0,0,0,0,0,0,0,0,0,0,0,0,0,0,0,0,0,0,0,0,0,2.530645,5.485623,2.122463,8.794261,24.66227,26.16368,19.91595,12.14663,23.44793,30.21448,24.00781,19.53416,20.38483,17.35583,13.12788,32.29402,42.05814,39.55021,46.72359,51.4683,54.78997,62.06022,47.59097,30.3777,52.67913,61.37949,58.57557,58.71744,60.5005,57.4707,55.33836,55.72188,55.73362,53.53878,54.15525,57.15496,56.39325,59.65121,63.12644,64.14804,58.43434,55.5167,51.84866,45.6551,46.74841,57.7213,50.77261,42.68707,49.73815,64.74055,63.00393,66.70833,67.50905,65.88252,60.85859,45.2832,15.29981,51.86099,42.28171,21.67926,27.69246,39.55904,56.74906,60.94097,49.8343,29.35458,16.61396,1.044177,0,0,0,0,0,0,0,0,0,0,0,0,0,0,0,0,0,0,0,0,0,0,0,0,0,0,0,0,0,0,0,0,0,0,0,0,0,0,0,0,0,0,0,0,0,0,0,0,0,0,0,0,0,0,0,0,0,0,0,0,0,0,0,0,0,0,0,0,0,0,0,0,0,0,0,0,0,0,0,0,0,0,0,0,0,0,0,0,0,0,0,7.241804,12.91919,13.59099,9.531122,5.312752,11.70676,29.03974,46.87599,48.34557,50.0725,45.7225,42.41626,44.23731,50.95974,55.4346,54.96732,57.32825,63.12082,60.59028,56.36783,42.62622,43.0692,36.26887,24.94725,19.74191,32.49846,31.18917,38.00173,46.62891,53.04979,61.25833,61.67377,59.1385,56.67481,61.07451,62.76318,46.91573,28.34253,11.85022,28.69077,31.44346,13.04138,15.31991,20.12222,15.11446,22.84034,37.68707,27.25416,13.70472,21.5269,28.49073,45.1961,46.63068,31.65658,33.59323,49.09911,51.3678,41.71832,36.47005,26.8758,13.12729,9.411059,7.554423,4.893848,1.455622,0,0,0,0,0,0,0,0,0,0,0,0,0,0,0,28.57043,51.87141,56.43279,62.36681,69.1073,72.91035,71.96983,70.43459,70.95875,68.18681,66.20637,65.72374,64.87457,68.06615,71.21999,71.10094,73.03001,74.55093,74.1619,72.38755,68.80008,65.59708,66.53804,69.57816,69.45128,63.39161,56.00773,51.7605,50.43386,47.33834,31.28376,36.78056,20.17707,14.12348,32.78843,47.90652,53.88976,55.6568,48.847,32.72178,24.39627,17.88356,23.82155,18.67794,40.40935,29.32634,5.992502,13.61077,23.12498,24.32207,21.0599,22.93796,33.42605,41.69772,46.83029,51.43913,51.40236,48.77911,48.48707,42.86539,22.26281,12.72511,22.1272
54.78476,60.24777,53.54807,26.57496,36.5296,50.73897,60.08588,70.37194,68.75411,52.92393,44.96901,32.2771,20.41733,37.14947,29.82789,8.641338,39.44791,45.38632,45.92947,57.94081,54.98129,48.96337,28.74761,30.91923,52.0657,57.5778,46.23882,45.41326,37.84547,36.53309,33.30934,40.6967,49.33225,38.98073,22.28706,30.70906,36.01075,27.22144,39.38756,43.13364,53.50099,58.59235,49.54693,19.29408,17.99709,23.56126,17.80842,15.50775,27.81431,44.60643,52.61083,47.26581,46.46113,44.99024,41.28269,51.78181,53.95746,54.77357,62.00529,65.66285,66.30042,68.14835,68.07889,65.98839,62.21773,58.51221,58.06248,58.81658,58.09016,49.26467,48.4575,50.78571,47.5182,34.42608,20.06233,36.33789,41.69107,47.19082,53.6675,61.33687,53.10342,42.05214,49.58136,62.32938,63.96121,58.6265,53.15887,39.52801,20.38321,22.94528,31.44222,33.06328,35.63271,50.0408,51.27131,49.74815,41.45314,12.67685,12.15912,24.09956,18.07881,28.59301,11.86018,14.8028,14.75451,13.54332,24.8971,41.62606,45.73761,43.09796,42.67591,39.5142,33.15207,39.0018,38.7056,28.93314,26.79596,32.1847,26.71229,17.69803,7.877288,0,0,0,0,0,0,0,0,0,0,0,0,0,0,0,0,0,0,0,0,0,0,0,0,0,0,0,0,0,0,0,0,0,0,0,0,0,0,0,0,0,0,0,0,0,0,0,0,0,0,0,0,0,0,0,0,0,0,0,0,0,0,0,0.8545501,5.618101,10.13508,5.290984,4.917092,7.897744,15.24934,23.5016,23.84912,21.48471,33.73923,31.1048,13.23855,6.626672,9.69337,18.97604,25.46731,38.42301,33.92438,30.58462,50.07872,58.47293,59.53497,49.67488,18.39013,43.94076,55.76285,63.82209,60.78402,57.02805,51.76991,50.55122,52.72308,52.2432,50.06316,46.72709,49.36395,53.63561,54.57228,57.43724,59.25607,54.06289,49.42279,62.33593,65.50066,49.71762,57.86604,64.99158,54.3762,38.65977,39.19758,55.10204,51.32938,60.2645,63.75326,67.8124,67.29729,56.3876,20.18805,42.24407,45.70371,22.33241,38.79338,44.56621,56.35153,58.59163,43.35144,24.9534,15.24968,1.47671,0,0,0,0,0,0,0,0,0,0,0,0,0,0,0,0,0,0,0,0,0,0,0,0,0,0,0,0,0,0,0,0,0,0,0,0,0,0,0,0,0,0,0,0,0,0,0,0,0,0,0,0,0,0,0,0,0,0,0,0,0,0,0,0,0,0,0,0,0,0,0,0,0,0,0,0,0,0,0,0,0,0,0,0,0,0,0,0,0,0,0,0.06255726,0.08846932,0.06255726,0,0,0,5.741668,30.38222,39.4341,45.6526,43.90513,38.1202,39.14033,38.7985,47.99104,44.19896,46.45379,58.06123,61.69189,62.85665,55.12906,50.69896,42.97661,38.06795,30.84592,32.24073,39.19846,43.69725,40.81081,54.56336,62.77794,59.47734,56.14622,57.16691,63.87568,63.20259,51.90258,44.07002,29.50239,16.60166,29.79183,31.08235,24.7437,35.25222,44.40562,49.40198,54.71027,52.56723,36.105,14.44771,20.37245,41.04607,42.23764,45.33939,53.55933,55.19231,45.38346,28.31633,11.12194,3.729774,0,0,0,0,0,0,0,0,0,0,0,0,0,0,0,0,0,0,0,9.102217,51.07105,62.62215,63.68008,68.35035,72.19559,73.27626,70.27933,69.14114,71.26228,68.22002,64.6586,63.0872,64.1524,67.85456,70.48345,72.55396,74.69848,74.69337,72.23443,66.81956,58.42747,58.66169,64.70644,70.21409,69.32108,56.46452,44.17977,39.6986,43.75897,47.04544,40.76018,40.28705,5.631551,5.00355,19.22835,29.48328,49.1937,57.93003,61.36816,56.26975,44.50629,5.898572,23.82852,23.09912,37.24604,18.20046,16.39184,20.75332,27.89036,30.96528,27.98908,28.49382,36.74858,46.93478,52.30808,56.1757,59.23539,57.83446,56.4507,55.57312,48.62178,36.47024,36.39068
56.40902,56.64547,42.27563,34.881,45.75645,57.74501,64.28304,67.74122,64.20573,51.59481,40.0075,17.65504,15.01833,29.68197,25.7474,26.58804,27.12562,24.62159,41.85968,59.59428,56.16229,49.33866,32.03559,48.99312,54.78415,52.15445,34.5341,43.10345,42.20874,43.24764,44.22492,48.91445,51.99614,42.36586,38.02617,43.80488,49.15246,46.07187,43.31162,41.59634,52.79903,55.57967,43.7206,23.90056,27.20641,37.66004,43.33517,40.66847,45.06223,43.43908,44.13924,45.16877,44.82998,49.90791,57.29938,63.58556,61.16946,55.45539,61.57372,69.16907,69.34699,68.32284,64.55706,63.36489,62.52247,59.3838,60.19619,59.60585,58.58224,55.33082,51.89379,48.3195,45.55869,39.15341,37.14337,37.23721,38.58504,42.0686,45.38576,62.1893,59.64027,47.7483,57.6069,65.54125,65.01817,58.35315,51.93938,44.30812,40.43561,39.02883,36.7463,31.5309,29.86153,40.89153,47.37241,47.27042,37.62299,27.79766,28.91924,24.19825,12.2023,30.27858,22.05813,10.18517,5.655582,3.404673,23.16762,44.49983,50.61696,46.5663,42.07753,36.19912,32.61496,38.3664,36.05592,26.31861,19.45879,25.91231,26.64853,19.04667,7.877288,0,0,0,0,0,0,0,0,0,0,0,0,0,0,0,0,0,0,0,0,0,0,0,0,0,0,0,0,0,0,0,0,0,0,0,0,0,0,0,0,0,0,0,0,0,0,0,0,0,0,0,0,0,0,0,0,0,0,0,0,0,0,2.846476,8.497568,13.9462,11.85245,10.91639,8.697595,0.8055148,0.569239,5.973729,18.59162,31.90035,33.10429,26.21868,15.50916,4.503109,22.0922,36.66186,45.07616,46.78076,38.00338,30.63041,51.10536,60.50872,48.65381,10.85796,44.94195,51.09179,57.8413,62.44111,58.44117,50.84686,38.20406,32.53235,36.12753,41.42846,44.5537,45.56884,48.11593,51.70771,54.40542,56.1083,54.13477,48.44604,52.97377,64.81487,70.0014,64.48478,65.02897,59.79905,33.36531,10.5507,27.08271,50.99675,55.90539,53.56177,55.74899,67.53121,69.48462,63.68666,45.06077,13.29752,43.81504,42.23359,52.2137,52.44661,55.47942,52.14349,33.03986,22.32648,12.6712,1.044177,0,0,0,0,0,0,0,0,0,0,0,0,0,0,0,0,0,0,0,0,0,0,0,0,0,0,0,0,0,0,0,0,0,0,0,0,0,0,0,0,0,0,0,0,0,0,0,0,0,0,0,0,0,0,0,0,0,0,0,0,0,0,0,0,0,0,0,0,0,0,0,0,0,0,0,0,0,0,0,0,0,0,0,0,0,0,0,0,0,0,0,0,0,0,0,0,0,0,13.79796,20.4041,30.17988,40.90557,45.25877,41.97663,33.18132,47.65409,50.60682,45.80713,49.76006,59.14374,62.0312,58.35005,60.80539,58.03084,49.28623,41.60391,48.79939,34.81604,48.78371,47.53646,56.48326,59.6862,50.6082,49.65578,61.01752,67.33862,64.33053,54.94965,48.51871,42.52099,31.03477,8.601173,27.91756,34.15865,47.06483,53.74354,47.39814,49.89621,53.6733,47.53077,23.9758,13.49914,29.51934,34.4116,42.5413,49.18316,45.43641,31.32056,19.5827,7.849555,0,0,0,0,0,0,0,0,0,0,0,0,0,0,0,0,0,0,0,11.73489,43.4742,65.68298,67.69658,64.9489,69.19621,72.64752,71.18182,67.37289,69.54769,72.49504,69.59692,64.16407,62.787,67.40221,70.60441,72.09498,74.51048,74.53583,71.48592,66.93805,62.47364,57.88959,60.18292,65.59502,66.17808,62.784,48.65067,34.21995,35.86449,42.16021,47.20686,51.05261,51.49853,39.52271,27.45348,33.65772,36.46083,39.88734,28.04633,52.51152,58.26799,54.42318,37.00312,13.35687,16.6397,23.26716,44.1939,48.2734,46.24953,46.23872,44.21141,38.78595,33.71788,39.42795,49.60151,53.04354,54.95121,59.53732,59.79223,57.81686,57.26232,50.9967,39.62404,34.57926
50.80513,45.99124,34.49506,46.47349,53.59728,60.56191,65.9363,64.84589,55.36713,44.25702,39.55314,23.48511,26.36949,25.61611,3.817057,29.18503,33.17727,26.72471,33.73931,53.98774,58.66602,56.89637,52.92801,58.04612,50.65124,33.91629,16.14159,24.1037,36.67898,47.75444,48.7147,51.99875,49.65415,42.49925,48.90985,57.02225,58.38714,52.26294,45.53031,36.03911,42.8091,53.69808,46.8493,29.99321,43.03154,47.26991,51.67877,51.82718,39.09081,20.89774,38.81223,52.48516,52.86126,58.6484,64.24322,64.23448,57.16461,53.06347,63.10132,71.91373,68.73078,58.88322,45.30142,52.83922,58.37799,62.84501,64.94162,56.23859,57.4157,60.6873,50.56093,37.22152,52.27634,54.87734,50.14546,41.71068,32.07702,31.81508,38.34732,62.40828,65.24507,59.85312,60.76134,62.70327,64.8343,61.26241,56.60712,52.64844,46.5539,37.64556,30.99994,27.0003,29.00616,33.1778,36.31413,40.18869,37.34179,42.63619,42.66998,18.30697,3.449974,25.77423,15.52033,4.675291,11.10894,5.896278,26.61333,47.92664,54.27082,48.44865,39.66951,35.34389,36.42623,39.92698,38.3684,34.30617,31.21277,33.69006,30.52935,15.17675,3.540607,0,0,0,0,0,0,0,0,0,0,0,0,0,0,0,0,0,0,0,0,0,0,0,0,0,0,0,0,0,0,0,0,0,0,0,0,0,0,0,0,0,0,0,0,0,0,0,0,0,0,0,0,0,0,0,0,0,0,0,0,0,1.107652,8.776776,13.69659,10.24407,4.171008,11.43692,12.13921,3.682488,3.313103,11.28168,22.14908,30.40087,24.36645,26.071,26.89226,22.45051,38.67724,47.14225,50.06504,51.7145,47.88866,43.96812,50.36172,58.1937,34.88205,41.13029,46.94484,44.86294,53.42656,57.39363,53.49364,46.57526,33.70087,15.1735,10.36265,23.78696,33.85348,38.22046,37.4836,39.224,41.05998,41.90597,40.46879,41.73843,57.6358,67.8161,71.94061,70.39603,62.70898,36.5546,38.9712,29.49884,35.74463,50.43141,52.54864,36.99963,41.37773,61.80278,68.83297,65.7383,51.12369,28.71112,19.79105,43.58382,56.4458,53.80647,48.22733,38.50573,22.73269,17.93534,7.73114,0,0,0,0,0,0,0,0,0,0,0,0,0,0,0,0,0,0,0,0,0,0,0,0,0,0,0,0,0,0,0,0,0,0,0,0,0,0,0,0,0,0,0,0,0,0,0,0,0,0,0,0,0,0,0,0,0,0,0,0,0,0,0,0,0,0,0,0,0,0,0,0,0,0,0,0,0,0,0,0,0,0,0,0,0,0,0,0,0,0,0,0,0,0,0,0,0,0,0,6.972573,10.70908,16.37919,23.29836,25.79605,20.5906,22.49567,39.51594,52.21831,50.96864,44.5582,52.77162,58.50639,57.05059,57.94199,62.83007,54.26721,57.66189,59.41818,53.73473,50.25073,57.28552,58.50143,55.94134,53.72865,58.59365,66.6363,65.97149,54.4337,35.69442,24.99592,27.52294,38.23616,37.88496,18.21965,22.95444,42.73063,44.18476,7.710576,20.35723,42.03392,49.09698,34.44519,19.76076,36.54435,41.15948,41.16995,37.75789,25.95104,14.61933,9.860093,3.540607,0,0,0,0,0,0,0,0,0,0,0,0,0,0,0,0,0,0,6.836212,42.32832,65.7416,71.91319,69.5892,65.75333,69.70142,72.0443,66.70153,65.33325,71.51495,73.22198,70.04185,62.41478,64.13496,70.79202,72.52074,72.84573,73.95218,71.42377,66.1907,60.70122,56.67532,54.07677,58.5156,60.17232,49.47469,56.70409,52.41806,30.14285,32.90905,41.61478,40.37865,51.00352,61.25289,58.43526,43.13091,36.10751,45.26638,44.94007,23.20221,34.37678,50.20754,54.10031,50.59305,43.74561,39.08771,46.35983,54.98425,56.53666,56.40085,55.05368,51.08857,47.90463,43.43362,44.89039,48.83806,53.19139,53.12659,56.02853,55.72979,55.84593,57.70238,45.5077,22.2091,22.76629
36.34856,28.59122,36.80449,54.6157,58.95081,61.42178,61.5191,58.63884,54.12417,43.8239,37.6601,30.63431,31.82652,10.91358,21.90233,28.61412,28.41373,34.64504,24.92683,27.26233,58.47163,66.60244,67.41669,63.94506,54.14038,37.18345,8.370296,10.33664,33.73189,42.01332,48.98694,55.21336,51.01249,42.57703,46.68047,51.54257,57.32631,58.507,55.69199,49.72074,36.00439,41.80706,47.74572,44.66567,55.05988,51.81023,29.84135,36.01511,28.97832,24.08261,48.56042,60.6212,61.05886,63.02563,63.6203,53.61688,38.74167,53.92593,66.82303,70.65959,64.67361,41.10924,39.14054,45.15107,56.241,67.58965,65.59912,51.11356,58.82926,63.29182,39.5708,40.83504,54.04453,58.23584,59.68331,55.71501,22.22155,30.89618,51.61322,66.56481,68.82173,60.87228,56.68301,60.09238,65.71956,64.12942,56.81216,43.38259,24.84803,23.70463,33.20066,36.79911,34.85339,27.5525,21.0787,23.03289,24.00216,43.99044,46.51531,33.34032,22.74733,27.06042,14.97898,5.246354,10.90216,15.7287,39.99284,55.82737,56.34489,46.18296,39.2038,37.58358,38.23424,38.96608,40.16029,40.05495,35.74809,29.44556,17.68071,3.540607,0,0,0,0,0,0,0,0,0,0,0,0,0,0,0,0,0,0,0,0,0,0,0,0,0,0,0,0,0,0,0,0,0,0,0,0,0,0,0,0,0,0,0,0,0,0,0,0,0,0,0,0,0,0,0,0,0,0,0,0,0,1.42409,7.528193,12.14619,10.48203,6.090141,6.398959,11.12109,17.67513,19.30897,17.78874,19.64826,22.78984,19.85015,14.41924,20.38162,30.60975,37.26197,45.1696,41.57865,39.76432,41.82142,44.53953,49.97543,50.32099,46.09148,18.29974,44.08899,48.85092,51.07296,51.49469,50.49862,48.48598,45.26525,33.18918,9.275719,0,4.642875,8.811511,8.59272,6.668475,11.35777,14.71016,15.35811,16.84871,32.75394,57.84157,69.68929,72.896,73.28695,64.17709,34.39825,40.07386,31.1074,26.86714,33.77292,25.89723,30.25204,27.83036,52.20671,67.27002,67.21689,54.98315,41.8291,34.3836,40.01983,47.25613,39.84617,33.20625,28.24607,19.81344,12.44074,3.947891,0,0,0,0,0,0,0,0,0,0,0,0,0,0,0,0,0,0,0,0,0,0,0,0,0,0,0,0,0,0,0,0,0,0,0,0,0,0,0,0,0,0,0,0,0,0,0,0,0,0,0,0,0,0,0,0,0,0,0,0,0,0,0,0,0,0,0,0,0,0,0,0,0,0,0,0,0,0,0,0,0,0,0,0,0,0,0,0,0,0,0,0,0,0,0,0,0,0,0,3.130566,6.148735,6.849081,4.872023,2.205756,5.697154,13.71718,25.83201,44.63848,52.47137,47.85864,45.00682,46.63142,48.45305,56.70235,62.46454,61.76016,62.44268,55.67269,53.73796,51.38628,60.12231,60.9817,55.85801,54.17309,60.26288,64.11378,53.91795,26.29109,7.190747,0.4673002,4.082359,23.70845,40.31953,39.2687,24.89635,31.80388,36.61813,12.30865,19.7269,38.66506,49.7604,44.03224,29.71815,26.65842,29.15567,27.37247,20.7445,9.644876,1.265941,0,0,0,0,0,0,0,0,0,0,0,0,0,0,0,0,0,0,0,0.4432315,26.54082,61.6816,71.6717,72.19333,69.53139,70.1982,72.42796,71.73435,67.67939,70.32438,73.74362,71.68056,66.40257,60.63536,66.89184,71.44688,71.68623,72.7142,71.91762,67.36982,61.95694,54.74139,54.57959,52.51721,52.3027,44.23896,20.48218,53.28882,56.34972,51.05171,54.7071,57.64587,49.81808,56.22381,61.53009,63.87458,57.62529,42.9453,42.91909,43.02203,26.95927,11.60181,39.11812,49.88157,54.14357,54.17705,50.04332,45.38782,40.78955,37.07155,46.82164,50.54486,52.1297,54.09341,54.22073,48.59213,40.6926,44.3364,48.76279,56.9887,60.9809,62.21058,63.20903,52.08887,31.74744,17.162
36.40075,26.26482,47.39235,61.01511,61.19305,57.26472,57.11552,57.12218,49.03402,38.21525,25.07655,25.72553,22.67958,12.44215,24.15234,31.33181,25.28995,16.16485,16.31472,33.20596,52.64713,66.21918,68.8759,64.39462,55.42122,49.91108,43.96859,40.12887,37.2132,39.28997,50.16759,56.32811,53.92049,50.93895,46.19497,45.56356,51.25726,59.38884,59.04849,54.74066,48.44148,31.81209,20.70073,43.29364,61.13362,60.67481,36.83253,18.27227,27.02819,41.01278,50.67394,58.49187,61.53391,58.18104,50.50156,29.08583,38.65449,63.80149,67.2324,64.85402,55.63903,7.769885,36.73984,43.45048,60.18461,69.00005,62.03363,47.67989,59.73562,63.98134,38.22391,42.29412,38.12894,48.76225,57.03007,62.61821,57.20254,60.0103,62.65624,65.56609,64.86148,51.66313,55.01423,63.00059,65.66267,62.19488,52.37118,30.17584,9.164996,17.46163,23.7795,29.6981,22.54945,18.99204,15.9199,17.50998,18.71363,40.08176,44.72248,42.14441,35.76884,29.41404,17.96711,14.33391,20.46947,34.86502,54.22157,60.56382,54.88532,44.35434,41.48363,40.5374,39.20612,39.08224,42.12727,36.51436,20.508,9.974979,3.540607,0,0,0,0,0,0,0,0,0,0,0,0,0,0,0,0,0,0,0,0,0,0,0,0,0,0,0,0,0,0,0,0,0,0,0,0,0,0,0,0,0,0,0,0,0,0,0,0,0,0,0,0,0,0,0,0,0,0,0,0,0,0,5.155789,13.59532,7.695569,6.408267,11.84665,10.04594,10.59591,14.86242,21.80717,21.93358,13.92105,13.9827,14.79651,20.25201,27.56091,33.14163,42.8765,48.26407,37.23993,33.16371,34.88139,32.62626,48.89719,49.03756,32.66405,15.45546,52.86093,55.03254,56.05003,49.95984,43.23178,44.31388,44.4049,31.4212,4.547303,0,0,0,0,0.4432315,0.6262009,0.4432315,0,6.294166,28.08462,54.98589,70.51785,74.02137,75.08292,67.47957,29.79609,40.44504,30.40828,18.15374,32.72239,20.35877,32.44963,23.0736,47.81113,65.66571,67.93346,60.20879,48.49019,50.81347,45.51476,33.88548,32.57595,34.43377,25.93611,12.97932,5.22506,1.202522,0,0,0,0,0,0,0,0,0,0,0,0,0,0,0,0,0,0,0,0,0,0,0,0,0,0,0,0,0,0,0,0,0,0,0,0,0,0,0,0,0,0,0,0,0,0,0,0,0,0,0,0,0,0,0,0,0,0,0,0,0,0,0,0,0,0,0,0,0,0,0,0,0,0,0,0,0,0,0,0,0,0,0,0,0,0,0,0,0,0,0,0,0,0,0,0,0,0,0,0,0,0,0,0,2.056427,6.59728,15.27172,33.78533,50.85817,54.21968,50.94866,40.28482,36.7137,54.44859,58.29025,61.72385,61.11199,55.95282,53.27623,54.33564,63.75497,65.07681,61.27961,58.85885,57.56237,52.06295,28.04401,2.941113,0,0,0,11.27914,29.64916,46.38258,41.16642,31.5396,37.35114,29.80125,43.08022,49.21765,51.17923,43.32554,20.42344,2.151405,0,0,0,0,0,0,0,0,0,0,0,0,0,0,0,0,0,0,0,0,0,0,0,0,9.543633,48.58152,67.78309,72.03739,70.47018,67.68571,69.51488,69.33012,67.50497,68.85835,72.08511,72.36139,65.66172,61.22981,64.6552,68.95508,69.4846,69.98583,72.60826,69.54365,64.24883,58.87798,49.22923,52.08687,50.37579,45.56895,26.66483,2.658664,38.82895,52.28793,60.47566,64.53725,68.19567,64.13157,56.10125,50.11778,60.5443,63.55127,54.60437,45.01247,45.30699,35.32443,11.68702,13.96573,22.80552,32.9739,40.42747,36.73677,13.45031,21.20441,20.94463,36.75713,39.89156,47.78944,55.50091,58.48041,51.3054,36.71658,27.93981,34.22467,51.09711,62.61541,66.63763,67.60005,61.8861,51.17156,32.16076
52.88281,46.73899,57.86592,64.55337,60.50853,51.14319,55.97832,58.94428,24.25709,33.63784,20.41996,28.30107,23.70844,10.03595,23.26428,35.83048,20.60672,24.32803,41.10881,46.63027,57.18113,58.70874,60.70819,58.94319,48.85583,37.40178,39.81813,43.80733,44.83628,52.99203,59.51662,57.71418,50.85334,51.12236,50.24782,52.59981,55.06544,58.56501,57.83467,51.32561,48.00071,41.00532,30.01048,23.7734,58.89097,64.4783,47.20097,28.5589,39.0146,41.60514,36.48874,49.68411,62.63203,61.58278,45.00177,31.67966,51.4329,68.31852,65.09271,48.49581,24.22359,39.40793,40.4118,46.89964,63.82604,65.95348,56.78153,48.16987,54.4554,62.8896,49.54925,20.50191,21.0191,9.774409,49.69357,67.70915,68.68102,64.28418,61.90533,59.4339,51.92682,46.33192,59.42053,66.77573,65.24294,57.43171,47.37102,29.4791,14.74283,21.09283,19.66407,12.09918,9.638882,16.05081,22.60879,25.46276,26.0792,37.51536,42.72601,44.00264,38.87427,34.45465,33.74477,37.20808,43.11967,51.51452,58.56148,57.06776,48.47167,41.46725,44.07743,45.9865,45.54121,45.25816,40.11422,22.38968,3.540607,0,0,0,0,0,0,0,0,0,0,0,0,0,0,0,0,0,0,0,0,0,0,0,0,0,0,0,0,0,0,0,0,0,0,0,0,0,0,0,0,0,0,0,0,0,0,0,0,0,0,0,0,0,0,0,0,0,0,0,0,0,0,0,2.435903,11.90117,18.89222,11.40733,11.44231,21.35992,13.04336,9.676785,3.322309,3.412428,5.758473,5.826116,9.370728,23.7473,26.43235,25.95789,32.52348,42.81159,43.94551,31.34624,30.52531,41.30326,43.50274,49.72601,32.44937,36.41436,48.4304,59.85085,57.72523,56.02329,49.50928,44.506,46.92534,42.37187,23.51398,1.86141,0,0,0,0,0,0,0,0,1.202522,21.89536,50.6324,69.75267,74.72549,75.41167,69.57832,6.529306,44.55746,38.16748,23.32277,31.84593,19.61376,41.76171,46.06339,51.77385,61.94205,66.26837,63.92451,55.90941,57.16417,54.15083,27.65113,25.21632,42.17907,31.83327,10.77223,0.5524929,0,0,0,0,0,0,0,0,0,0,0,0,0,0,0,0,0,0,0,0,0,0,0,0,0,0,0,0,0,0,0,0,0,0,0,0,0,0,0,0,0,0,0,0,0,0,0,0,0,0,0,0,0,0,0,0,0,0,0,0,0,0,0,0,0,0,0,0,0,0,0,0,0,0,0,0,0,0,0,0,0,0,0,0,0,0,0,0,0,0,0,0,0,0,0,0,0,0,0,0,0,0,0,0,0,0,0,3.130566,16.46592,38.72517,52.14724,55.34503,48.38118,43.62937,50.56909,54.07394,61.40094,63.00206,64.75367,66.18326,67.49373,68.26802,67.2852,62.2245,55.8798,44.86752,27.78976,8.112006,0,0,0,0,4.3283,14.31197,39.69442,48.50438,38.75148,31.65585,38.5308,49.91701,48.76643,45.25617,30.55527,7.294497,0,0,0,0,0,0,0,0,0,0,0,0,0,0,0,0,0,0,0,0,0,0,0,0,4.422661,31.11089,60.24608,69.7826,72.79903,71.49242,66.96296,64.23991,58.20366,59.02167,66.94986,69.17371,64.50428,51.66605,57.72675,65.87392,66.71937,65.3742,67.8717,71.68808,66.41614,56.62193,46.8332,30.1959,47.28695,52.11935,47.75546,25.36689,14.89877,18.59034,9.323965,43.48827,50.00114,62.76666,63.16037,54.73472,46.34542,54.16091,64.26389,59.62603,49.96896,51.0007,45.36007,41.96235,43.99729,37.97728,25.60903,25.43597,28.02382,16.80289,18.79446,36.98592,43.76772,28.37296,34.66177,42.80047,48.25512,52.49635,44.03869,35.67764,34.36974,34.33287,51.9062,64.06255,65.85588,64.67339,57.82742,45.96339
45.73499,47.73847,58.02987,60.54934,52.96107,43.52403,53.5143,51.96242,25.52892,49.86241,37.95406,37.51915,34.57118,31.45864,35.36697,46.55686,44.27335,52.80539,55.19005,51.95715,55.42767,45.39876,29.64883,56.12938,53.95092,35.41875,36.9126,50.09676,57.25283,59.95243,59.82767,56.77043,57.19299,58.58042,60.2496,59.67897,57.62728,54.97782,58.47443,51.36645,41.50631,39.73688,50.58316,55.96515,64.42671,67.50676,57.00846,48.04423,42.9452,26.3546,19.00999,42.53861,60.81161,65.9599,55.51205,42.81477,51.14033,65.21635,61.32107,40.7999,42.13123,46.68999,42.74735,48.71546,63.47289,61.03433,56.37999,52.03111,39.88861,54.22713,50.36237,29.89158,48.89066,56.70097,61.62015,69.6329,69.61229,65.67624,56.56687,47.65019,29.52367,46.45553,62.31623,66.80541,65.21632,56.94958,49.37058,40.00254,30.1378,21.11309,12.29368,12.86908,4.517353,15.85444,27.00514,26.58501,26.94386,32.63669,34.04049,37.29794,41.78062,41.94064,42.7604,49.47169,55.70893,58.26356,55.48251,50.43345,46.29016,40.30325,44.17475,46.76226,44.93069,38.57081,22.38968,5.866984,0,0,0,0,0,0,0,0,0,0,0,0,0,0,0,0,0,0,0,0,0,0,0,0,0,0,0,0,0,0,0,0,0,0,0,0,0,0,0,0,0,0,0,0,0,0,0,0,0,0,0,0,0,0,0,0,0,0,0,0,0,0,0,1.360706,9.194131,19.06046,21.29615,14.94659,17.6097,21.8138,11.01102,14.10981,9.340413,16.88642,15.62748,4.548939,17.1633,32.64611,26.9021,20.1738,28.24293,37.69158,38.78383,41.98775,45.01453,51.6289,51.74588,41.54071,32.63634,62.03205,60.82391,59.04776,55.55653,51.84753,44.92472,40.49409,42.19042,30.40143,10.22418,0.9811842,0,0,0,0,0,0,0,0,0,22.28381,51.42768,68.85007,74.22595,74.38387,70.18491,38.11494,31.71894,36.45302,38.64584,38.36484,40.20697,53.88791,55.83504,61.28185,58.15008,60.44025,63.67776,59.97326,61.54755,62.5421,31.19015,10.53017,42.45924,42.75055,25.68603,5.953612,0,0,0,0,0,0,0,0,0,0,0,0,0,0,0,0,0,0,0,0,0,0,0,0,0,0,0,0,0,0,0,0,0,0,0,0,0,0,0,0,0,0,0,0,0,0,0,0,0,0,0,0,0,0,0,0,0,0,0,0,0,0,0,0,0,0,0,0,0,0,0,0,0,0,0,0,0,0,0,0,0,0,0,0,0,0,0,0,0,0,0,0,0,0,0,0,0,0,0,0,0,0,0,0,0,0,0,0,3.130566,14.68035,41.18041,50.7266,48.13587,48.97234,53.66473,58.91236,62.04706,62.42617,65.56609,68.21643,69.39871,67.46631,61.6247,45.88791,26.70258,10.82075,2.024971,0,0,0,0,0,0,0.7912999,17.74152,43.08379,48.06702,41.96872,45.75675,47.33626,39.86549,28.68274,10.64046,0.569239,0,0,0,0,0,0,0,0,0,0,0,0,0,0,0,0,0,0,0,0,0,0,0,0.6644077,24.36308,52.5517,65.75998,71.75493,73.70345,71.34578,63.61783,55.60883,51.02181,56.24485,64.77725,66.52238,60.83441,52.46407,58.22676,64.31618,66.91354,65.84309,66.87473,69.57338,63.38326,49.76487,41.13249,37.19263,52.54616,58.59385,51.12592,20.14454,16.21362,36.5387,41.11782,51.73586,33.81043,28.99058,42.58683,53.6963,52.58179,50.8893,62.38881,60.25201,51.18418,53.79443,56.32646,58.68177,58.90331,56.3397,46.79168,29.56661,18.74879,24.17686,17.04916,42.13696,48.73491,23.41925,24.5264,18.73194,32.15137,47.85606,40.65201,46.55812,45.1951,25.53977,35.5372,56.70531,60.55475,64.75227,59.4893,52.14965
27.52621,33.05117,46.84219,48.03214,45.92236,44.00303,49.57488,38.07219,41.08392,46.09523,27.56406,47.57875,51.28457,49.52826,52.28733,60.35589,62.35915,61.34054,56.74824,53.746,49.45721,20.88338,15.14665,40.63338,60.28692,60.7613,62.74212,64.66381,65.74688,66.07484,65.53454,64.81911,66.36658,67.79122,67.2094,60.95251,52.08778,44.43361,55.53876,55.8825,56.41662,59.20398,64.06123,66.23193,67.04095,64.59024,50.1452,28.11721,24.79075,15.92248,25.16115,50.09111,60.41699,64.10158,61.96658,39.0855,43.79263,52.75027,55.76042,51.20935,45.2378,40.26518,42.46471,55.47427,61.85347,59.58559,60.26805,51.31189,33.71459,53.56193,54.05762,49.14668,47.63271,50.8095,62.58639,67.15765,68.19296,67.2732,54.60642,37.83886,26.96074,51.92337,61.99565,63.91877,63.65291,59.9701,53.55014,36.9713,18.16093,10.23391,2.153405,10.1485,16.35288,23.55282,23.46281,16.56587,18.1212,27.72837,31.43271,35.98069,44.86821,47.71399,49.66175,55.52036,58.42619,56.95393,51.87017,50.53161,49.2946,42.97298,44.35703,43.89894,34.61201,17.68071,3.540607,0,0,0,0,0,0,0,0,0,0,0,0,0,0,0,0,0,0,0,0,0,0,0,0,0,0,0,0,0,0,0,0,0,0,0,0,0,0,0,0,0,0,0,0,0,0,0,0,0,0,0,0,0,0,0,0,0,0,0,0,0,0,0,0,4.927122,15.30892,19.29773,15.52435,11.04011,18.54327,13.43354,10.18916,19.22229,17.36461,14.38693,18.07208,23.48033,27.01965,34.36757,29.18511,20.13426,18.89771,27.14437,27.20495,36.20502,51.25043,60.61968,54.19353,25.296,61.87394,69.15385,60.73465,54.75737,53.62259,48.56449,39.26985,31.5157,24.89312,11.63471,0,0,0,0,0,0,0,0,0,0,0,25.92742,53.61921,67.68574,72.79556,72.91,69.42415,53.74666,3.098699,25.57823,23.59284,26.9989,37.92643,37.65205,43.85267,64.1983,59.15166,52.03587,57.01831,55.90717,62.53644,66.59705,45.83318,24.03964,36.47264,46.96959,38.73111,14.99748,0,0,0,0,0,0,0,0,0,0,0,0,0,0,0,0,0,0,0,0,0,0,0,0,0,0,0,0,0,0,0,0,0,0,0,0,0,0,0,0,0,0,0,0,0,0,0,0,0,0,0,0,0,0,0,0,0,0,0,0,0,0,0,0,0,0,0,0,0,0,0,0,0,0,0,0,0,0,0,0,0,0,0,0,0,0,0,0,0,0,0,0,0,0,0,0,0,0,0,0,0,0,0,0,0,0,0,0,0,1.139351,27.88888,38.67004,38.54589,36.71215,43.44383,54.62829,54.78301,52.63188,55.22601,55.82286,53.1938,47.91646,34.99893,13.34836,1.961642,0,0,0,0,0,0,0,0,0,2.688608,23.92481,42.43893,47.96005,47.20942,38.00957,21.49656,7.840573,0.7912999,0,0,0,0,0,0,0,0,0,0,0,0,0,0,0,0,0,0,0,0,0,0,0,0,5.125641,43.99044,60.52439,67.67867,72.86875,72.50264,69.10871,61.95642,53.46231,52.68196,60.08856,63.83197,63.8734,60.44532,59.66118,60.97242,64.10935,67.62101,67.20779,66.06428,63.9476,60.2309,51.12281,43.792,44.83363,57.67807,58.45978,50.38449,15.36243,22.40932,38.75801,28.30787,50.26069,46.8384,39.14135,28.73831,34.22477,49.83736,47.89426,59.02347,60.64006,54.90252,58.28389,62.06189,61.72456,56.67764,53.7385,49.16508,42.36965,35.01804,19.28407,17.79038,40.17908,49.24926,32.25244,0.1398823,17.85313,33.26583,31.37524,28.02904,37.58917,40.71077,36.97739,33.97333,48.91812,58.22629,63.14781,56.69871,43.32026
17.64481,19.75658,27.88446,37.56878,43.18692,52.36853,56.2301,48.34359,47.15543,34.77853,29.99097,56.37291,58.51214,57.6468,57.29347,61.18497,60.82233,54.027,45.51868,50.37003,52.33556,46.96787,32.62634,45.8844,61.42408,67.98545,69.90967,68.81699,66.716,66.61217,67.64201,65.9924,64.74262,65.50801,64.12305,59.58818,46.38852,35.04955,46.18534,52.44553,62.14534,62.52891,60.314,58.01003,52.38161,38.0451,29.75728,27.17019,18.37486,16.02468,44.55237,60.99369,60.77794,53.92197,61.15701,48.07724,34.34069,26.35966,50.89263,53.37656,39.48141,39.12353,52.98495,61.46321,64.59322,64.7813,60.89648,44.63863,30.64063,55.00827,53.62698,46.6204,34.83228,31.1296,58.11343,62.93676,68.06158,66.38435,46.49661,27.25614,34.26517,55.3392,58.62469,59.10497,61.75021,61.24441,55.64928,35.12576,19.7702,17.17949,9.515952,10.79288,21.263,29.03716,13.75014,1.818976,4.979174,16.06465,24.102,32.05051,40.89687,48.06334,53.18809,55.87075,54.07414,50.03923,49.29759,52.21745,49.48115,41.8349,41.82858,38.09743,20.11547,3.540607,0,0,0,0,0,0,0,0,0,0,0,0,0,0,0,0,0,0,0,0,0,0,0,0,0,0,0,0,0,0,0,0,0,0,0,0,0,0,0,0,0,0,0,0,0,0,0,0,0,0,0,0,0,0,0,0,0,0,0,0,0,0,0,1.360706,2.309612,5.970545,14.68534,15.69401,12.67478,13.04052,10.06855,5.818643,14.03316,19.98934,17.57543,8.148831,9.040071,33.22384,33.34311,31.93862,29.43429,23.21344,15.68995,11.15505,29.02888,36.75135,50.72083,62.64407,51.68568,47.55685,67.91896,65.79312,50.39124,49.14455,50.64188,43.93585,30.59212,20.7508,12.76427,6.988506,0,0,0,0,0,0,0,0,0,0,0,28.89826,53.48252,66.34144,71.24252,71.32996,68.40017,59.87062,35.76894,22.023,9.201245,27.06997,31.3557,18.0153,48.95801,63.55333,61.13876,47.60805,49.19444,47.95611,58.47689,65.77783,60.4769,49.45023,40.8144,46.45556,44.43237,25.10371,3.035833,0,0,0,0,0,0,0,0,0,0,0,0,0,0,0,0,0,0,0,0,0,0,0,0,0,0,0,0,0,0,0,0,0,0,0,0,0,0,0,0,0,0,0,0,0,0,0,0,0,0,0,0,0,0,0,0,0,0,0,0,0,0,0,0,0,0,0,0,0,0,0,0,0,0,0,0,0,0,0,0,0,0,0,0,0,0,0,0,0,0,0,0,0,0,0,0,0,0,0,0,0,0,0,0,0,0,0,0,0,15.41094,26.36463,36.68392,36.48562,35.88416,41.14129,31.75644,23.49083,21.01822,15.9616,7.88583,1.360706,0,0,0,0,0,0,0,0,0,0,0,0,0,4.894329,15.03985,21.18899,18.68445,10.01064,2.688608,0,0,0,0,0,0,0,0,0,0,0,0,0,0,0,0,0,0,0,0,0,0,0,0,0,0,8.341721,50.97756,63.24605,67.99551,72.63193,71.05296,67.83844,63.43079,55.6633,58.36858,65.14563,66.53027,66.36745,65.47975,64.97402,64.05347,65.52807,66.55169,66.68133,63.28884,52.99792,57.42013,51.78059,42.45947,58.5166,60.54689,51.12679,44.0091,27.79249,34.75668,26.95762,23.52541,34.71038,44.24745,48.98832,44.29455,32.75208,43.68512,37.4171,50.56898,52.86484,49.89091,52.98223,51.32666,49.31368,46.43655,47.15617,49.82331,48.70662,44.50091,27.96349,26.92138,32.96172,41.04102,41.68103,18.74965,21.22767,21.34184,21.37992,35.97541,31.48903,37.06069,44.12183,47.05619,50.04214,58.26314,61.51461,57.32684,40.6191
12.10867,12.49135,19.00884,29.92019,29.3603,45.76398,55.76905,49.2971,44.33436,25.40975,33.1619,57.67818,61.79185,59.45457,42.13139,19.06202,28.28846,35.71069,45.68922,52.30859,48.707,52.46687,45.51984,57.49221,60.55314,64.43851,65.91232,65.27576,63.28925,59.08139,54.97099,53.76594,56.23455,53.26339,51.57094,53.8131,45.53933,38.73763,35.40084,33.34524,34.77235,31.30184,26.60611,9.604964,11.33353,32.34399,38.39827,33.31719,7.324346,29.7213,51.2453,60.23424,50.0065,33.45079,55.90575,54.70564,31.81824,30.81658,42.40319,54.99587,47.84543,50.93906,61.73672,63.35451,66.49058,65.90992,58.128,43.92389,29.70884,49.42572,51.64822,44.09185,34.86617,42.42772,60.89701,65.50652,66.99366,58.92525,34.70632,14.6245,38.54444,53.00151,53.44785,56.71719,62.39033,59.91994,52.40696,31.10875,13.03661,19.828,16.77893,24.30611,24.99878,17.96865,13.62959,7.988834,4.382041,10.94427,21.08518,34.57432,41.66771,45.79301,50.5753,50.26907,45.98037,42.52103,45.75589,48.52124,43.06215,37.60044,36.63519,26.58794,7.444395,0,0,0,0,0,0,0,0,0,0,0,0,0,0,0,0,0,0,0,0,0,0,0,0,0,0,0,0,0,0,0,0,0,0,0,0,0,0,0,0,0,0,0,0,0,0,0,0,0,0,0,0,0,0,0,0,0,0,0,0,0,0,0,1.107652,4.900849,6.020277,7.053688,8.644087,13.17468,16.81852,20.75121,20.94663,10.97614,10.06449,19.40073,12.93651,7.956876,12.6334,31.83371,32.62842,30.6132,29.97912,16.61029,18.7975,30.14709,31.94371,47.97719,58.46264,64.25214,39.41891,54.55513,63.36309,53.46473,39.63342,40.73319,37.98531,30.14959,17.99743,12.82788,7.715461,3.28825,0,0,0,0,0,0,0,0,0,0,0,22.76917,50.39995,66.93165,71.61333,71.48161,69.79588,64.97841,44.38993,32.86707,27.20443,41.90388,38.37662,14.08309,46.40538,60.41025,57.89256,47.94819,45.24065,47.07605,56.29928,64.08723,65.34768,59.99751,53.97818,52.05906,49.68,38.35397,13.00833,0,0,0,0,0,0,0,0,0,0,0,0,0,0,0,0,0,0,0,0,0,0,0,0,0,0,0,0,0,0,0,0,0,0,0,0,0,0,0,0,0,0,0,0,0,0,0,0,0,0,0,0,0,0,0,0,0,0,0,0,0,0,0,0,0,0,0,0,0,0,0,0,0,0,0,0,0,0,0,0,0,0,0,0,0,0,0,0,0,0,0,0,0,0,0,0,0,0,0,0,0,0,0,0,0,0,0,0,0,5.459446,13.2273,26.84699,36.80401,35.93877,27.59541,7.27265,0,0,0,0,0,0,0,0,0,0,0,0,0,0,0,0,0,0,0,0,0,0,0,0,0,0,0,0,0,0,0,0,0,0,0,0,0,0,0,0,0,0,0,0,0,0,0,0,0,0,19.36024,59.32924,67.26572,68.76102,72.96062,71.42218,66.2961,60.64992,44.35992,49.37568,63.13398,62.93349,59.71204,62.00784,63.55365,60.57377,60.50397,62.29672,64.174,59.72116,41.83077,52.51856,53.02683,51.44926,61.59877,54.47936,46.4668,45.46996,44.1311,41.50039,17.84771,21.99135,9.833573,35.70532,40.98581,41.53755,45.10076,47.52244,33.57177,39.68651,36.45449,45.9749,49.78353,41.35857,39.0291,45.62766,49.54501,52.50228,49.37239,46.15194,41.8178,37.78461,24.66919,25.38916,38.33893,28.40238,28.40243,43.00171,47.32087,45.62186,42.93671,45.73621,45.66298,49.82084,52.25077,54.95158,58.64631,61.17542,53.98103
26.04628,27.65166,25.70221,27.10063,17.94181,35.35483,51.90792,34.49228,18.23278,17.76375,22.34199,52.87193,63.32337,65.60677,60.63978,49.58956,40.89874,34.75131,46.4715,50.70283,42.81107,47.26269,47.07223,58.54502,51.04078,44.6288,49.28791,54.35709,58.16182,52.95113,42.9785,48.59725,44.06933,36.28971,41.57592,50.58973,56.6525,55.34233,41.31059,6.043157,16.80422,32.174,40.61435,47.79169,45.65665,40.96566,39.77387,46.25407,20.48202,23.71395,49.95923,57.72287,44.40791,25.83129,44.9716,55.34013,38.67862,36.39429,34.66666,53.91978,61.21952,62.06253,63.59415,64.34277,68.19686,64.09927,53.33654,41.75534,24.4703,34.19296,46.63917,47.93587,46.65799,48.96102,63.00597,68.80434,63.18663,49.54811,40.14729,39.72371,44.00031,39.91069,47.21011,59.0714,63.98061,56.42104,43.89315,25.95337,13.08981,9.179157,27.34896,35.92724,26.73681,13.99897,6.74375,10.74704,12.70189,22.35054,30.95883,38.94664,40.27495,41.69106,43.72028,41.81393,38.52076,37.36593,40.92014,39.15212,31.73597,28.98299,24.13601,11.21807,1.455622,0,0,0,0,0,0,0,0,0,0,0,0,0,0,0,0,0,0,0,0,0,0,0,0,0,0,0,0,0,0,0,0,0,0,0,0,0,0,0,0,0,0,0,0,0,0,0,0,0,0,0,0,0,0,0,0,0,0,0,0,0,0,0,1.681792,4.854015,3.549941,7.395101,5.733743,2.136983,12.22064,18.45678,20.57951,18.61268,11.7241,24.9485,8.027149,11.66312,17.73172,22.18998,25.14289,30.77798,34.7408,32.04812,30.2332,23.03434,14.61966,52.19452,64.94489,66.85241,35.30676,60.8967,60.65316,53.52648,48.72472,46.7882,36.10153,25.03174,13.80643,5.879066,1.297393,0,0,0,0,0,0,0,0,0,0,0,0,8.5773,35.72517,63.26236,70.88744,72.83474,72.34231,68.87565,47.37655,31.88708,21.47579,31.62623,44.2392,36.72167,41.00982,54.93364,51.81876,54.01829,53.2115,51.1282,54.74916,60.4866,64.75706,63.83173,60.29887,57.75784,55.62267,48.94979,23.21206,0,0,0,0,0,0,0,0,0,0,0,0,0,0,0,0,0,0,0,0,0,0,0,0,0,0,0,0,0,0,0,0,0,0,0,0,0,0,0,0,0,0,0,0,0,0,0,0,0,0,0,0,0,0,0,0,0,0,0,0,0,0,0,0,0,0,0,0,0,0,0,0,0,0,0,0,0,0,0,0,0,0,0,0,0,0,0,0,0,0,0,0,0,0,0,0,0,0,0,0,0,0,0,0,0,0,0,0,0,0,0.3165179,4.590774,11.8773,12.86837,6.836212,0,0,0,0,0,0,0,0,0,0,0,0,0,0,0,0,0,0,0,0,0,0,0,0,0,0,0,0,0,0,0,0,0,0,0,0,0,0,0,0,0,0,0,0,0,0,0,0,0,0,10.72996,49.14368,69.15304,69.59795,67.45369,72.32007,71.03127,64.30978,56.18788,36.36401,51.29261,66.22231,63.35654,56.443,61.16995,62.43155,55.56256,54.12711,58.85691,63.3604,60.7118,44.49009,52.92566,52.1785,47.73813,60.54498,51.97283,50.53317,52.37281,55.32447,41.7767,29.97802,29.48456,31.94904,40.7699,46.7236,52.03893,53.85961,49.44851,32.54341,16.21058,23.52072,32.07373,39.55432,39.53209,34.43675,36.67396,46.53188,49.44615,48.93665,54.55277,49.71054,38.82677,22.38287,23.48958,43.24377,47.7869,46.77368,55.81479,58.16244,55.57338,55.57488,56.44487,50.40609,53.05569,56.16585,52.3356,56.07353,62.45612,61.47418
17.89815,25.87737,39.7163,44.46386,37.06771,30.8407,47.31759,48.47809,28.99646,6.555204,13.52573,38.80373,53.28907,59.0487,56.00098,41.7315,36.58399,55.11196,54.42705,29.11562,23.49402,31.26741,53.43348,55.1569,39.0466,33.04997,46.46453,54.48092,57.36119,59.03437,52.24278,55.37938,47.1324,47.85444,53.04296,63.06462,68.00394,68.89923,60.69842,33.04892,25.35874,38.9676,49.13259,53.20421,46.92877,35.87622,43.86927,54.86834,43.60292,40.51199,52.6393,59.0493,54.43249,32.92941,30.93319,52.58089,53.85858,55.47273,55.26932,60.5612,65.95927,67.12035,68.00277,68.6939,69.02851,62.80901,54.08611,45.74286,33.64789,21.174,41.71587,47.66383,53.15622,54.86621,64.77539,69.76234,62.40967,51.33986,52.12246,50.60257,38.93959,22.50503,44.24873,60.98577,63.3323,52.10921,37.65867,21.03501,11.04405,12.78995,30.77063,37.4686,29.67228,21.18352,22.12432,16.15711,19.49239,28.88301,30.79752,35.52489,39.1759,42.2645,39.65738,35.61343,36.52772,38.9188,38.51509,33.45595,25.47249,17.69803,8.731449,1.455622,0,0,0,0,0,0,0,0,0,0,0,0,0,0,0,0,0,0,0,0,0,0,0,0,0,0,0,0,0,0,0,0,0,0,0,0,0,0,0,0,0,0,0,0,0,0,0,0,0,0,0,0,0,0,0,0,0,0,0,0,0,0,0,0.1251145,1.211277,3.929196,6.270103,8.957804,3.55991,7.390085,7.871903,11.46597,21.8022,25.56303,14.8265,27.85497,6.156733,12.58578,17.91028,15.19387,7.976833,22.01196,26.92139,12.25287,9.787435,10.16363,40.18935,59.58164,67.69357,65.82962,14.16866,58.50859,57.42353,54.96865,55.22515,54.8161,42.38155,23.32748,9.169176,1.677131,0,0,0,0,0,0,0,0,0,0,0,0,0,0.09278741,28.26547,54.59286,64.76148,72.67982,73.12637,70.35359,61.30685,16.18948,42.22178,10.00184,38.49538,51.9826,43.73453,31.62367,46.8316,49.78753,50.68723,48.70053,49.80854,51.32994,58.93448,60.94985,58.94952,56.61027,57.21673,55.63331,30.35984,0,0,0,0,0,0,0,0,0,0,0,0,0,0,0,0,0,0,0,0,0,0,0,0,0,0,0,0,0,0,0,0,0,0,0,0,0,0,0,0,0,0,0,0,0,0,0,0,0,0,0,0,0,0,0,0,0,0,0,0,0,0,0,0,0,0,0,0,0,0,0,0,0,0,0,0,0,0,0,0,0,0,0,0,0,0,0,0,0,0,0,0,0,0,0,0,0,0,0,0,0,0,0,0,0,0,0,0,0,0,0,0,0,0,0,0,0,0,0,0,0,0,0,0,0,0,0,0,0,0,0,0,0,0,0,0,0,0,0,0,0,0,0,0,0,0,0,0,0,0,0,0,0,0,0,0,0,0,0,0,0,0,0,0,1.677131,37.84312,64.87198,70.54634,64.98155,60.79597,69.08559,69.90525,64.42571,55.43234,49.62518,63.39092,70.58534,67.48856,61.11391,61.77426,61.78225,57.4347,55.88582,58.69686,62.40525,61.63301,51.18048,53.19037,43.9746,29.25698,58.35347,54.54258,41.63811,49.09621,58.46349,48.27229,26.03133,16.46102,48.28552,55.6137,50.63939,54.35711,52.84524,42.96742,36.51328,18.57674,11.98217,27.25049,24.60272,25.19378,25.93247,17.04592,33.22496,45.2692,52.82484,59.30367,53.46608,42.75962,35.24713,43.39467,54.55523,56.34216,54.90148,56.93842,58.09256,59.4032,58.28941,59.31976,58.45274,58.3675,59.76327,56.12294,54.05526,61.06818,65.91344
5.690268,17.39335,34.48142,44.10279,34.74488,23.66084,45.527,55.19687,33.1516,14.43724,31.61324,44.79922,53.2065,51.58562,43.13719,26.94121,8.818309,50.95115,57.55662,38.90902,37.47703,42.58753,44.04744,43.68183,38.07702,44.5933,53.59935,56.47284,51.97524,52.39407,56.18406,56.62326,47.14236,51.57222,57.84824,60.72503,63.05357,70.64692,68.21087,56.49776,47.10582,51.88544,53.27251,31.27466,42.58597,34.73846,39.3676,55.16338,56.93149,54.79251,58.67118,60.30279,58.87131,47.41282,42.1065,52.53803,60.19896,62.25723,62.00356,62.30754,63.48938,65.40083,65.78129,64.0759,63.78664,54.17089,51.54112,53.62564,51.05468,34.86565,46.63364,51.00134,56.61939,57.98746,63.97209,68.15827,64.65247,61.50049,59.66328,49.3605,30.75305,15.45546,37.5354,58.96486,61.80887,56.31374,46.71512,24.57233,5.21485,22.38091,26.42918,33.05603,39.44994,20.36761,25.7641,24.12901,19.19391,28.18526,30.08689,32.66338,38.82622,39.67078,33.98006,30.85267,33.77245,32.46582,29.11677,24.136,13.64797,5.194634,1.455622,0,0,0,0,0,0,0,0,0,0,0,0,0,0,0,0,0,0,0,0,0,0,0,0,0,0,0,0,0,0,0,0,0,0,0,0,0,0,0,0,0,0,0,0,0,0,0,0,0,0,0,0,0,0,0,0,0,0,0,0,0,0,0,0,0.311533,0.9261955,1.104113,5.213385,7.647371,7.254364,9.539863,6.412183,10.2927,19.82207,20.71053,26.37063,26.9533,13.92611,22.24434,20.758,1.665421,1.747645,19.80797,26.24266,5.700696,10.31576,35.2448,53.00365,62.50489,66.11165,60.49578,23.64585,55.34905,53.02293,54.16162,58.9351,59.43438,43.00818,14.62413,1.993312,0,0,0,0,0,0,0,0,0,0,0,0,0,3.445999,14.57925,41.0326,51.12366,57.34373,70.04092,71.45199,69.99483,69.32063,44.33139,44.14808,41.51474,36.91424,48.20361,50.55512,25.78013,35.10207,41.02624,37.93726,46.84494,53.06694,54.91361,59.14313,57.31765,57.38039,58.835,58.91059,57.08121,32.92015,1.07611,0,0,0,0,0,0,0,0,0,0,0,0,0,0,0,0,0,0,0,0,0,0,0,0,0,0,0,0,0,0,0,0,0,0,0,0,0,0,0,0,0,0,0,0,0,0,0,0,0,0,0,0,0,0,0,0,0,0,0,0,0,0,0,0,0,0,0,0,0,0,0,0,0,0,0,0,0,0,0,0,0,0,0,0,0,0,0,0,0,0,0,0,0,0,0,0,0,0,0,0,0,0,0,0,0,0,0,0,0,0,0,0,0,0,0,0,0,0,0,0,0,0,0,0,0,0,0,0,0,0,0,0,0,0,0,0,0,0,0,0,0,0,0,0,0,0,0,0,0,0,0,0,0,0,0,0,0,0,0,0,0,0,0.9811842,14.86683,56.21758,67.9915,67.37595,58.31942,54.73845,65.7884,68.31359,65.07845,61.1337,64.24437,69.89124,70.72211,66.08881,61.26603,63.76742,63.69465,58.89501,58.72981,58.26226,57.00261,59.64787,55.79746,50.81838,29.36689,8.889134,47.24665,54.35326,48.00293,45.9427,46.89699,50.88148,31.29683,31.17727,57.69173,57.68563,40.26612,28.5305,28.54087,37.76767,31.63171,19.50844,9.598761,23.67046,26.77934,31.73609,27.91422,34.97199,20.83623,35.36513,53.16159,58.23894,53.02629,48.84745,48.72149,55.48687,56.73184,54.09778,48.88537,43.28224,46.01852,50.45468,48.01695,52.41947,56.8006,56.64248,57.99012,57.33667,52.962,57.64623,67.4952
19.4316,32.49822,20.29009,38.41196,35.60876,32.00974,53.0201,56.17857,38.15978,38.01167,47.91219,53.99245,58.04391,56.24733,53.84309,48.93581,44.20414,49.23256,51.15866,46.00525,51.4236,52.03328,44.24598,33.28704,21.23556,30.16686,45.5363,42.68955,34.09805,14.55609,19.53278,30.33639,20.62323,33.86364,35.59806,31.05871,34.53565,66.25529,68.71815,64.45625,59.33129,60.08941,62.06526,48.86064,14.59679,20.92526,18.61654,31.41727,35.51635,46.10274,59.46027,64.04743,61.39515,51.75789,51.26222,56.40536,62.72131,64.43367,65.25194,63.9701,62.35561,59.50099,51.2398,49.01334,52.73846,27.40409,45.48314,59.42973,58.37572,26.91677,29.78716,44.91988,58.38673,62.62727,61.25851,62.6416,64.5396,65.77231,62.87296,46.69407,29.5015,16.86543,32.72533,54.79006,59.46169,59.07046,54.57565,37.75483,18.75573,24.11034,25.48211,34.31075,43.06565,28.83643,17.20704,21.34371,18.30498,25.54835,35.63107,35.92049,38.91335,38.69644,32.47507,30.70061,30.97477,21.73796,15.26126,11.63775,2.05833,0,0,0,0,0,0,0,0,0,0,0,0,0,0,0,0,0,0,0,0,0,0,0,0,0,0,0,0,0,0,0,0,0,0,0,0,0,0,0,0,0,0,0,0,0,0,0,0,0,0,0,0,0,0,0,0,0,0,0,0,0,0,0,0,0,0,0.3250574,1.020675,0.7284679,3.635396,6.518125,6.311121,5.052297,0.4215087,9.68777,14.26894,14.46203,19.94612,9.953625,6.57778,21.10468,21.50807,9.221705,5.240674,17.62174,24.77621,18.07512,24.10013,43.90165,54.32139,59.2873,61.40081,53.16264,27.07334,54.85929,56.0959,60.58693,62.62825,59.01169,35.35158,6.67688,0,0,0,0,0,0,0,0,0,0,0,0,5.678994,17.12845,28.61046,37.58092,46.69926,48.36351,51.13448,62.87085,68.82419,70.96567,72.83325,57.06284,44.21136,47.05016,46.74729,30.26695,41.08272,44.02446,17.83424,35.60773,43.90958,46.8559,47.63675,59.33782,63.84699,61.39183,59.95147,62.83552,62.99711,56.98531,29.62741,1.521614,0,0,0,0,0,0,0,0,0,0,0,0,0,0,0,0,0,0,0,0,0,0,0,0,0,0,0,0,0,0,0,0,0,0,0,0,0,0,0,0,0,0,0,0,0,0,0,0,0,0,0,0,0,0,0,0,0,0,0,0,0,0,0,0,0,0,0,0,0,0,0,0,0,0,0,0,0,0,0,0,0,0,0,0,0,0,0,0,0,0,0,0,0,0,0,0,0,0,0,0,0,0,0,0,0,0,0,0,0,0,0,0,0,0,0,0,0,0,0,0,0,0,0,0,0,0,0,0,0,0,0,0,0,0,0,0,0,0,0,0,0,0,0,0,0,0,0,0,0,0,0,0,0,0,0,0,0,0,0,0,0,2.056427,16.75836,44.36109,65.01583,69.84469,67.44318,58.51132,57.45135,64.26913,63.87555,63.8975,67.15848,70.7606,70.38077,64.47313,60.56355,62.93555,63.34178,59.66632,52.37817,52.71002,51.3111,49.59001,57.63238,55.34199,47.72959,29.41483,15.22363,39.54816,45.33149,55.64122,46.11492,27.15822,45.4794,39.01204,48.76693,59.51119,49.31906,33.78139,16.24742,16.37122,36.50537,32.14707,27.41975,8.035168,25.60921,7.232289,14.56023,15.67319,35.26826,22.14342,45.21723,53.1878,56.74643,55.3896,53.72539,50.95012,56.63898,51.31825,46.83965,40.30881,37.44584,42.56718,33.23656,40.92639,51.80766,55.16735,45.37835,49.30906,57.64491,57.6293,59.76069,66.27537
36.86168,32.90548,29.03535,48.85652,49.84768,53.96775,62.42425,60.00424,51.85014,52.6708,54.84085,58.05924,62.32171,63.64038,64.50912,64.13418,63.80137,63.90173,61.53755,59.64845,61.58458,59.9139,53.31817,43.63094,32.56654,13.25237,47.02591,41.46067,39.95555,45.40729,44.47163,28.67288,17.42219,22.12567,2.689336,20.12368,12.87584,54.68217,66.10686,66.91484,65.58693,67.16055,67.97536,66.33356,56.47911,36.00429,26.92941,31.06498,11.52104,22.56133,49.3235,62.82985,63.54524,48.92752,43.22967,48.80825,58.7837,61.81472,61.73451,58.7863,53.70268,41.17651,25.6129,33.2457,42.1177,33.5215,42.05714,57.2,56.94801,39.79622,37.41001,47.72477,61.13587,65.59495,59.46375,59.27642,65.08649,64.10043,60.06545,50.28375,48.36245,45.30016,44.79444,53.55829,57.09285,59.73989,57.83453,49.64009,45.37916,42.25292,37.1558,42.5215,43.32234,30.52613,12.56752,15.66857,22.72422,30.3179,38.07691,37.63729,38.83097,37.17035,31.29101,30.54199,24.97912,11.24264,4.654253,10.12974,3.252331,0,0,0,0,0,0,0,0,0,0,0,0,0,0,0,0,0,0,0,0,0,0,0,0,0,0,0,0,0,0,0,0,0,0,0,0,0,0,0,0,0,0,0,0,0,0,0,0,0,0,0,0,0,0,0,0,0,0,0,0,0,0,0,0,0,0,0.1582588,0.806971,1.012977,1.500635,3.422968,2.371576,3.169224,7.909044,6.523958,5.830589,11.22639,9.439672,6.614468,14.6214,16.44656,12.0587,7.669178,2.602936,11.3668,21.75419,26.34403,35.25733,47.09615,52.23881,54.89903,57.90231,50.69564,8.660251,53.93118,62.26289,65.53793,63.43931,53.57095,22.92719,2.214612,0,0,0,0,0,0,0,0,0,0,5.772988,19.6534,37.96261,48.79155,53.37781,55.09649,52.10014,44.47423,39.37156,51.5209,67.10137,72.69192,74.27483,61.67933,47.46267,48.7147,52.88184,54.52722,36.81205,31.75829,14.57722,33.76443,48.6473,49.45597,49.26847,60.24287,66.91965,67.18994,65.02252,64.72916,65.29401,57.49922,24.23038,1.07611,0,0,0,0,0,0,0,0,0,0,0,0,0,0,0,0,0,0,0,0,0,0,0,0,0,0,0,0,0,0,0,0,0,0,0,0,0,0,0,0.6644077,3.200083,7.762126,11.62602,13.02151,15.63258,18.48238,15.83854,8.460533,2.675325,3.769254,4.47317,2.661681,0.1582588,0,0,0,0,0,0,0,0,0,0,0,0,0,0,0,0,0,0,0,0,0,0,0,0,0,0,0,0,0,0,0,0,0,0,0,0,0,0,0,0,0,0,0,0,0,0,0,0,0,0,0,0,0,0,0,0,0,0,0,0,0,0,0,0,0,0,0,0,0,0,0,0,0,0,0,0,0,0,0,0,0,0,0,0,0,0,0,0,0,0,0,0,0,0,0,0,0,0,0,0,0,0,0,0,0,0,0,0,10.01567,41.55831,60.08902,68.36538,71.50798,69.09708,62.65108,62.93515,64.08556,59.38226,63.96709,69.8837,71.20283,67.56562,57.45277,59.03317,64.64328,59.46619,49.26744,39.56081,35.67079,44.26495,49.30764,55.5246,52.75948,50.67565,44.96096,36.0323,46.70873,48.61464,55.89544,46.49388,35.25699,49.46898,49.1496,54.31948,54.93362,39.5126,30.89957,16.26817,13.28056,27.22893,35.24561,34.60482,26.69358,26.9421,35.40761,33.22521,28.30683,9.965926,49.20305,60.44974,59.71276,59.29379,59.42557,54.78879,46.81099,50.3735,49.69585,53.08814,44.77515,40.35342,38.30325,15.2086,23.73924,54.21476,60.17102,37.94561,24.34097,50.13483,60.49429,64.47456,65.98498
44.76899,38.0299,53.95889,61.84349,62.19382,63.62587,63.53441,61.56478,60.11635,59.3468,59.35323,62.38976,65.60295,64.34731,64.33766,65.56796,65.47282,62.60383,62.6446,65.46197,67.56857,64.54707,55.49675,45.88365,45.64151,36.72636,41.3061,20.18817,13.78379,26.78442,44.1779,43.12194,29.27025,24.50608,29.0029,42.27171,47.18753,53.74839,65.55788,68.50477,67.24673,69.25807,70.07246,67.9062,64.03249,52.61584,51.27468,49.01078,38.96963,15.65602,39.04573,59.8078,66.087,55.7888,37.71961,47.70396,60.66071,57.72111,55.99969,51.58154,41.01446,33.49076,28.31037,28.53976,35.73717,35.86929,26.93717,44.00294,53.394,51.99039,49.0679,51.60549,62.0193,62.59382,60.37786,61.63154,63.15897,54.89963,52.75128,50.6343,43.32774,34.97423,42.49994,55.52539,56.46054,57.7801,56.58891,44.66239,37.7148,42.6624,45.48723,48.1958,43.79866,28.42818,21.66123,15.07557,16.24139,24.26741,31.57818,36.86641,35.45716,32.88585,30.44847,23.67048,13.14891,6.31671,7.037233,8.729919,3.252331,0,0,0,0,0,0,0,0,0,0,0,0,0,0,0,0,0,0,0,0,0,0,0,0,0,0,0,0,0,0,0,0,0,0,0,0,0,0,0,0,0,0,0,0,0,0,0,0,0,0,0,0,0,0,0,0,0,0,0,0,0,0,0,0,0,0,0,0,0,0.220287,1.648176,9.903195,19.77743,21.42179,14.34082,8.007659,7.070798,3.734653,10.86232,17.57635,12.69224,3.948883,10.9695,5.504987,11.94996,19.7501,25.69655,39.13353,49.8102,46.90551,49.15141,58.95023,56.07575,22.48528,56.65128,65.86937,66.14914,63.95652,49.40581,13.36171,0,0,0,0,0,0,0,0,0,3.666822,14.82974,39.51429,55.78552,63.04944,65.4506,65.18048,64.55938,60.44155,47.44597,32.55344,44.12907,68.66015,74.30624,73.71768,65.18146,46.664,53.99409,44.86514,52.96638,43.45531,41.09553,41.73152,41.59011,48.89038,59.4337,65.31844,67.27513,70.23524,71.48911,70.77386,68.62251,65.28031,54.75996,20.90429,0.1582588,0,0,0,0,0,0,0,0,0,0,0,0,0,0,0,0,0,0,0,0,0,0,0,0,0,0,0,0,0,0,0,0,0,0,0,0,0,0,0,3.200083,13.48314,26.23129,34.4022,38.20768,42.12585,43.05933,39.06365,29.98842,22.31013,19.11709,16.17958,11.66533,3.382924,1.4642,3.252331,4.111279,3.252331,1.455622,0,0,0,0,0,0,0,0,0,0,0,0,0,0,0,0,0,0,0,0,0,0,0,0,0,0,0,0,0,0,0,0,0,0,0,0,0,0,0,0,0,0,0,0,0,0,0,0,0,0,0,0,0,0,0,0,0,0,0,0,0,0,0,0,0,0,0,0,0,0,0,0,0,0,0,0,0,0,0,0,0,0,0,0,0,0,0,0,0,0,0,0,0,0,0,0,0,0,0,0,0,0,0,14.38802,49.95993,60.64032,66.29882,71.13963,68.266,61.42406,63.47189,64.38308,62.52544,68.19598,70.44592,66.54414,62.59272,59.55058,61.98584,65.32612,59.05525,40.23994,27.0689,31.32063,47.25293,58.48474,61.20688,53.43432,48.67506,50.8873,47.50765,51.16391,49.8408,53.40643,50.59169,42.05893,44.64356,47.2289,50.26456,47.93784,34.0086,31.10371,20.50399,16.50567,25.11511,40.31107,45.80087,37.41292,33.55674,38.89945,32.20173,35.95992,49.73576,62.23773,66.06266,66.78611,65.53848,62.11509,57.08154,50.56823,44.64839,44.19428,53.90603,50.66426,42.29314,30.4287,13.70337,7.544572,51.56163,61.56297,45.55545,14.12975,33.96088,58.35088,65.05872,67.47224
41.43019,56.66417,65.48272,66.93669,64.57899,62.12622,60.76933,62.46055,59.95007,56.72007,60.77972,65.87128,67.13627,65.33426,65.95885,65.37605,63.21834,57.75797,56.98383,61.72144,63.27557,58.2495,53.01994,51.11073,43.08162,42.59922,39.31503,22.19043,11.33487,17.42897,42.95766,53.25891,36.39705,33.84768,51.47005,60.59452,61.45817,57.10299,59.45578,64.0592,58.88931,63.21395,69.43998,68.70938,67.02453,61.09549,55.79641,44.96364,52.09116,36.81964,27.47342,50.21164,63.63578,61.48006,47.69651,57.87055,61.35426,44.39552,35.93451,35.50446,43.07181,50.58017,32.09637,23.9577,29.85687,34.02146,23.13327,30.99548,51.42197,49.88689,44.46373,49.97606,57.36046,51.487,62.51024,63.56386,56.36858,40.06768,45.48464,50.26243,45.59772,29.00391,32.65383,55.01926,55.24798,53.42075,54.29125,39.91811,28.60011,37.92213,43.82099,49.30505,48.86695,34.96634,29.9741,14.58518,11.18752,21.60617,28.82048,37.59558,33.22403,29.32454,27.17937,22.49934,16.22788,4.359771,7.037233,5.194634,1.455622,1.455622,2.05833,1.455622,0,0,0,0,0,0,0,0,0,0,0,0,0,0,0,0,0,0,0,0,0,0,0,0,0,0,0,0,0,0,0,0,0,0,0,0,0,0,0,0,0,0,0,0,0,0,0,0,0,0,0,0,0,0,0,0,0,0,0,0,0,0,0,0,0,0,1.098427,6.983817,20.4868,26.5923,22.46082,25.73563,18.98669,3.153619,0.569239,7.750055,19.40251,17.98407,10.96711,14.56537,19.49429,29.46461,35.79679,34.41866,41.15108,51.1151,40.00112,38.56829,60.88477,62.12154,18.27151,59.59118,66.42998,65.02212,63.36704,51.60167,18.30337,1.360706,0,0,0,0,0,0.02797645,3.666929,15.08788,36.91856,53.97976,65.30757,69.35835,70.24899,69.93543,68.38945,66.93127,65.04797,60.93171,51.46931,53.73132,69.72659,73.82565,70.73067,67.97794,22.14908,56.657,27.52525,37.0949,42.10471,52.27271,50.70797,48.8059,56.69397,61.66724,63.37162,64.91193,70.27821,72.70598,74.26721,72.27181,63.86158,44.45272,21.51414,12.69771,3.824335,0,0,0,0,0,0,0,0,0,0,0,0,0,0,0,0,0,0,0,0,0,0,0,0,0,0,0,0,0,0,0,0,0,0,0,0,0,2.467359,11.08468,24.50791,33.44947,36.48145,40.86853,45.21079,44.1119,45.59538,42.31472,38.23332,34.22359,29.97466,24.47209,14.91545,15.55822,16.39496,14.75258,11.30253,6.43023,1.455622,0,0,0,0,0,0,0,0,0,0,0,0,0,0,0,0,0,0,0,0,0,0,0,0,0,0,0,0,0,0,0,0,0,0,0,0,0,0,0,0,0,0,0,0,0,0,0,0,0,0,0,0,0,0,0,0,0,0,0,0,0,0,0,0,0,0,0,0,0,0,0,0,0,0,0,0,0,0,0,0,0,0,0,0,0,0,0,0,0,0,0,0,0,0,0,0,0,0,0,0,0,0,11.44496,50.82045,63.43658,68.80205,72.54969,68.59426,57.12877,60.07863,63.88974,65.78401,70.66611,69.5552,62.53424,62.17115,64.15132,60.40764,56.59248,58.26794,55.33587,44.23676,43.93697,47.4915,56.72966,64.85284,58.45236,52.45833,56.96975,48.94474,49.22202,57.78379,60.01848,56.45427,42.08754,32.87428,44.38913,49.65856,47.35109,31.36336,28.69499,31.12721,31.40335,35.38055,50.71821,51.53868,43.111,26.85325,27.38231,44.75568,53.03246,60.78211,64.96165,67.39976,67.11711,65.65746,62.7286,59.51299,56.52965,56.7397,55.72135,49.07325,47.96365,48.19613,29.42081,10.70291,13.57763,43.27032,56.06544,55.82493,41.06721,32.45044,53.15565,61.27396,65.06186
27.0334,62.57325,66.43625,63.39591,57.50489,54.90596,56.42073,58.83847,51.37586,42.59317,57.3986,68.03176,68.65605,66.80563,66.45217,64.5661,61.83749,59.32288,55.18922,54.90038,55.15144,50.93936,49.484,56.56418,30.58466,22.18629,25.65028,21.28342,28.66816,27.54039,43.85361,56.55298,50.36189,35.89997,51.47715,50.54861,43.97744,42.49101,51.94925,60.35542,49.72457,55.58735,67.42531,70.13476,66.70245,54.68053,37.97694,47.60734,53.84345,40.38641,15.13581,23.14691,53.74935,62.44632,52.80909,55.22715,49.02705,11.31983,10.95091,15.51702,46.08056,53.31636,25.40543,5.536438,16.04246,27.75638,43.40453,29.36263,21.58235,18.70834,38.66537,45.85307,48.9725,41.56432,60.71516,63.19299,56.00415,44.51854,42.64083,53.49968,59.16232,49.79015,38.97137,58.01786,57.33239,51.47847,53.04531,44.55539,33.2672,37.13708,38.0547,39.82104,48.63756,45.03048,35.27644,19.61714,20.93033,26.57327,31.72552,37.0793,33.56507,26.87904,17.3763,18.20782,22.32066,10.55553,0,0,3.540607,8.729919,8.611374,6.43023,1.455622,0,0,0,0,0,0,0,0,0,0,0,0,0,0,0,0,0,0,0,0,0,0,0,0,0,0,0,0,0,0,0,0,0,0,0,0,0,0,0,0,0,0,0,0,0,0,0,0,0,0,0,0,0,0,0,0,0,0,0,0,0,0,0,0,2.214612,3.808686,8.057979,20.70016,23.04892,4.791991,26.46096,22.35119,5.805085,0.6644077,3.076699,13.05256,18.88498,16.72927,18.57673,27.61866,28.05697,22.11303,31.77212,45.8291,49.92735,47.34512,51.18135,64.3588,60.08349,21.1918,58.8238,64.71709,65.13808,59.64842,50.44545,30.10367,13.23296,5.678994,0,0,0,1.55066,10.13541,25.37666,37.64995,54.57417,64.8279,71.13153,72.78196,72.92471,72.06783,69.44718,65.17237,62.32609,62.22651,55.56081,57.71326,66.81699,70.18584,68.55939,69.68885,38.65427,59.26868,46.41664,27.65104,8.915462,23.95343,27.00711,48.07692,56.72477,48.85012,21.31823,62.4458,70.40402,72.0191,75.18304,72.91298,62.29985,40.3846,31.21713,26.489,10.61713,0,0,0,0,0,0,0,0,0,0,0,0,0,0,0,0,0,0,0,0,0,0,0,0,0,0,0,0,0,0,0,0,0,0,0,0,1.360706,12.47726,27.29578,33.99199,31.35278,26.85586,25.82586,32.10648,34.95075,45.33091,48.87882,48.42422,46.30618,44.7951,41.56772,30.38054,24.09487,22.38989,22.71685,22.46256,17.82674,11.30253,5.194634,1.455622,0,0,0,0,0,0,0,0,0,0,0,0,0,0,0,0,0,0,0,0,0,0,0,0,0,0,0,0,0,0,0,0,0,0,0,0,0,0,0,0,0,0,0,0,0,0,0,0,0,0,0,0,0,0,0,0,0,0,0,0,0,0,0,0,0,0,0,0,0,0,0,0,0,0,0,0,0,0,0,0,0,0,0,0,0,0,0,0,0,0,0,0,0,0,0,0,0,0,0,0,11.38806,48.22559,65.77254,71.53659,72.70742,69.30727,58.18746,61.90111,67.91404,68.46757,68.66434,66.17286,62.45343,63.39432,61.87789,47.63603,35.15938,49.40979,55.05992,33.45547,20.66981,27.37312,50.33443,66.33299,63.32962,56.6507,61.86309,53.13882,48.44012,64.44379,66.33199,54.83955,43.88606,35.09891,46.89902,54.68952,49.48605,28.00722,21.9717,43.86052,44.40811,41.53476,54.61503,53.32199,49.74726,44.32909,51.78852,57.57444,61.77457,66.68394,68.46142,68.57254,63.81022,58.07555,57.94831,61.14986,61.13391,60.34252,59.22612,56.09322,51.59428,46.94141,24.46097,0,16.37107,31.83928,42.71395,54.93707,53.63012,43.40378,50.25781,57.42958,61.18428
45.75191,64.60334,58.57206,42.94469,37.31683,39.49105,44.29109,50.77036,40.38869,29.54881,59.03958,70.17502,64.3068,53.84206,56.65969,57.82152,54.677,57.3331,50.45794,47.40197,49.00946,43.25722,32.62756,58.38119,35.32198,18.55007,10.99386,42.15377,49.13271,37.71549,45.66318,59.05405,62.8967,55.53363,52.96861,46.71825,37.47717,19.54089,52.31411,61.72797,52.66459,48.20827,58.08761,68.48022,66.74984,46.78416,48.83262,57.19812,42.12916,32.72907,31.1033,18.36007,24.52938,56.73976,55.59917,36.24461,27.61992,16.35448,27.13477,36.66602,49.42478,32.83813,32.36137,37.6491,35.83953,18.43477,29.99304,50.95439,50.00578,40.53353,16.56891,33.46738,43.22617,42.24854,50.24402,55.10555,60.46951,55.4401,48.60806,53.94857,61.04091,57.94484,52.25373,62.39018,60.02639,50.5736,47.00643,43.19139,37.15085,41.53572,38.6776,29.43229,42.12418,49.47794,41.28985,27.76933,22.37926,23.77601,31.14413,35.61343,33.90443,24.91608,10.94375,9.092607,22.20661,17.47432,9.926818,11.63775,15.98467,16.29691,13.47984,12.76263,6.590261,3.252331,1.455622,0,0,0,0,0,0,0,0,0,0,0,0,0,0,0,0,0,0,0,0,0,0,0,0,0,0,0,0,0,0,0,0,0,0,0,0,0,0,0,0,0,0,0,0,0,0,0,0,0,0,0,0,0,0,0,0,0,0,0,0,0,0,4.970353,3.389285,2.871535,19.51412,28.27761,14.35323,25.06659,15.87728,11.88286,11.19095,6.443207,1.495671,8.455773,15.85259,22.95444,25.84851,29.95537,36.57127,46.67603,50.73346,52.73567,59.73669,63.37252,66.70394,49.20589,50.18385,55.89854,61.25003,63.99073,55.47655,48.35184,42.94128,35.31229,22.12146,3.666822,3.666822,14.91583,27.45571,35.09771,40.33918,44.66088,59.6486,67.65017,72.08326,73.0369,72.47025,71.23332,69.7322,65.4098,61.01656,60.34222,58.63802,61.74393,62.40075,64.29043,69.70792,72.49345,57.59776,61.25344,61.60035,50.64985,46.34619,51.78349,53.72742,57.15099,43.1404,15.66243,47.36155,65.1862,70.97699,72.04425,73.95583,70.3279,60.44645,46.08553,34.02084,33.07859,14.97592,0,0,0,0,0,0,0,0,0,0,0,0,0,0,0,0,0,0,0,0,0,0,0,0,0,0,0,0,0,0,0,0,0,0,0,0,6.142609,26.60006,39.89964,37.90524,26.68278,19.30037,27.24195,31.47129,31.07313,40.82704,50.90448,55.34171,55.51128,55.25981,54.63086,46.62296,35.22593,30.22818,30.53328,33.73187,32.15853,23.08143,10.95208,3.252331,0,0,0,0,0,0,0,0,0,0,0,0,0,0,0,0,0,0,0,0,0,0,0,0,0,0,0,0,0,0,0,0,0,0,0,0,0,0,0,0,0,0,0,0,0,0,0,0,0,0,0,0,0,0,0,0,0,0,0,0,0,0,0,0,0,0,0,0,0,0,0,0,0,0,0,0,0,0,0,0,0,0,0,0,0,0,0,0,0,0,0,0,0,0,0,0,0,0,0,4.642875,31.85842,57.02901,67.95319,71.49651,71.1587,69.94382,63.10563,64.54897,69.14682,65.95874,63.21535,65.38058,63.07485,57.92537,48.54529,24.57045,22.23129,41.73014,53.60215,31.11719,10.76062,19.35972,44.5263,63.58583,63.85658,59.96563,66.57608,61.51188,55.99463,67.50916,66.91907,46.91157,40.39066,44.2378,54.84652,56.96126,42.39468,31.58322,40.20184,54.87774,47.72339,35.90897,52.62697,55.01807,49.85347,49.76192,60.95821,63.77257,66.59291,70.31287,70.26986,67.41042,58.28903,50.85046,55.80841,61.40821,60.19307,56.63848,52.1636,48.34913,43.76639,33.16999,11.1571,0,13.53202,22.01079,31.15062,47.58139,53.81705,47.32956,49.45611,54.88768,59.55826
58.08548,65.50568,53.50983,27.5556,33.44142,35.00043,33.21635,48.73715,43.03494,42.56318,59.97608,68.39008,57.57652,26.65074,52.23162,55.38855,39.63801,55.417,49.80035,44.2651,37.68951,25.1351,28.06828,49.3255,41.41964,34.17447,34.72977,55.50289,43.71724,37.9884,48.90902,57.06692,65.08444,65.78704,57.6101,49.35841,48.09917,43.37085,51.78523,62.74671,51.81685,35.91168,52.26897,64.61082,66.34026,55.66976,57.51373,57.69635,29.10502,26.92563,36.5841,32.09544,25.96815,42.28798,56.09968,45.48604,8.233755,20.94633,19.04993,28.4816,26.43427,26.87888,38.26573,36.78168,30.91812,35.41058,46.50541,51.52494,51.66495,54.07903,47.64944,35.97142,43.96638,42.65516,35.99871,50.01395,59.86313,62.09901,57.52745,51.42854,57.64943,59.87926,62.29153,63.03244,56.81864,50.11001,42.92293,41.71788,40.05396,42.29822,34.46512,28.27291,39.74598,49.85991,48.34274,36.79525,23.53767,25.48282,32.46686,34.13472,27.08564,13.99698,8.740151,9.661311,20.57632,21.2246,21.14978,22.84081,19.23371,10.83592,10.24217,17.43719,17.78074,15.09079,10.95208,3.540607,0,0,0,0,0,0,3.540607,7.877288,9.926818,8.611374,5.194634,1.455622,0,0,0,0,0,0,0,0,0,0,0,0,0,0,0,0,0,0,0,0,0,0,0,0,0,0,0,0,0,0,0,0,0,0,0,0,0,0,0,0,0,0,0,0,0,0,0,0,0.5381398,6.555264,3.516024,5.223635,8.381034,24.92162,18.52213,15.33287,9.709623,23.75236,26.38669,19.03557,8.869222,2.332633,9.934244,24.10021,24.91986,20.59209,36.28347,55.1297,60.89421,60.22496,65.19488,66.23329,62.80653,44.10868,62.06137,58.14502,59.28273,57.34233,50.21108,44.11795,45.00125,48.90403,47.48094,41.50696,41.46419,43.63107,45.88293,46.03965,47.86594,56.72067,66.90645,71.47254,74.58202,71.93314,58.91133,44.55949,53.58664,63.56139,64.96502,62.82283,66.84418,68.70181,66.0464,63.69378,68.76443,74.29027,55.26433,60.81049,66.80801,63.10897,36.14298,42.57518,62.40793,62.13968,33.60782,35.05833,50.75129,62.06069,69.17757,70.51212,71.10166,66.76506,59.51229,52.2064,47.69753,40.89542,15.42351,0.1251145,0,0,0,0,0,0,0,0,0,0,0,0,0,0,0,0,0,0,0,0,0,0,0,0,0,0,0,0,0,0,0,0,0,0.1251145,3.952451,19.34092,41.37068,49.63538,40.03206,29.78419,23.09342,34.74417,40.54354,35.78289,37.13196,46.24398,54.30552,57.93722,58.3477,57.43831,53.2584,47.22316,44.89703,41.41095,37.69344,36.77331,32.58861,19.72209,5.767757,1.455622,3.252331,4.111279,3.252331,1.455622,0,0,0,0,0,0,0,0,0,0,0,0,0,0,0,0,0,0,0,0,0,0,0,0,0,0,0,0,0,0,0,0,0,0,0,0,0,0,0,0,0,0,0,0,0,0,0,0,0,0,0,0,0,0,0,0,0,0,0,0,0,0,0,0,0,0,0,0,0,0,0,0,0,0,0,0,0,0,0,0,0,0,0,0,0,0,0,0,0,0,0,0,0,0,14.09317,42.18893,57.26864,66.80914,69.6981,69.01363,70.26941,66.50569,63.92555,67.57443,63.35093,58.26759,62.29439,54.18857,29.35963,26.67189,14.99418,21.04463,42.25082,50.27925,40.83854,25.41413,31.65851,53.15608,59.24894,60.58367,64.45919,69.65398,66.89262,61.8216,65.95211,61.09861,42.53898,44.23861,49.89839,50.74545,48.54588,34.55047,42.04782,48.75178,50.72029,36.22124,31.27832,48.93127,59.74174,61.10557,58.97845,63.68134,63.62456,64.77032,69.0455,68.79224,65.18258,60.00497,60.00656,61.24681,57.29644,45.2706,35.38855,25.96007,16.88637,12.03463,5.929529,0,0,7.00205,13.54997,16.62432,34.58692,51.51511,53.94702,53.65757,55.16329,59.64994
61.24634,61.64178,48.27396,41.76263,41.6457,34.0118,28.37897,53.36033,53.45811,52.4488,51.8201,61.77495,59.5997,38.5943,56.19263,57.68655,32.27271,36.72974,51.95924,42.04536,20.87494,14.98214,12.32682,28.55194,46.58585,47.57079,54.44089,59.40041,44.57072,28.13433,31.65874,50.95382,62.24023,67.88448,64.81367,62.05489,56.2329,48.31889,41.75689,59.35859,54.92199,53.54148,56.76604,55.1516,61.51091,61.93071,61.54625,58.60473,42.93175,30.57261,28.76396,43.67755,41.5336,26.40259,44.44958,53.58057,46.3046,14.14342,3.42171,30.21463,33.19924,46.7986,33.76936,39.33616,35.30823,51.22991,55.44572,28.17472,43.31397,45.47046,52.49654,44.98293,49.18573,48.85397,36.43546,34.69154,43.8784,55.23289,51.04503,50.03997,62.14977,61.90843,64.45074,58.77115,51.43208,53.91703,49.94016,45.40298,39.97518,34.64837,34.09314,43.50818,49.4223,54.08517,54.88276,44.26373,35.89273,36.32732,31.45941,25.9687,11.41572,18.98759,22.39723,16.29928,18.0827,19.99885,26.25418,24.43577,17.20425,10.60233,11.36066,18.82345,24.87549,24.51758,21.89474,9.974979,0,0,0,0,0,1.455622,13.36618,22.77767,25.882,23.53878,18.19153,11.30253,5.194634,1.455622,0,0,0,0,0,0,0,0,0,0,0,0,0,0,0,0,0,0,0,0,0,0,0,0,0,0,0,0,0,0,0,0,0,0,0,0,0,0,0,0,0,0,0,0,0,0,1.31745,9.359164,8.703441,10.78835,2.754632,14.19185,15.45729,2.304182,14.88887,19.62264,21.94503,24.34114,14.08856,0,2.056427,15.63105,27.38566,33.06084,51.11393,60.84791,64.9705,64.57356,65.65865,61.624,45.22142,36.8697,64.049,65.05933,61.00918,47.74497,40.90878,30.6608,41.47485,53.51583,61.4775,64.30505,62.21403,55.57561,47.86296,48.80592,59.46963,68.73532,72.41236,74.44469,74.87148,58.87992,20.93758,27.73459,28.90287,49.98407,65.61433,64.86012,66.71333,66.41032,65.14769,62.10715,63.37817,73.79866,49.5841,65.35589,68.55919,61.98483,25.98798,38.98155,59.89825,60.55833,38.27735,29.21635,45.37046,59.00605,67.01186,68.05354,68.36498,63.63994,60.25658,56.92916,55.77146,48.6557,17.28347,0.2825486,0,0,0,0,0,0,0,0,0,0,0,0,0,0,0,0,0,0,0,0,0,0,0,0,0,0,0,0,0,0,0,0,1.708575,7.378366,21.02731,38.02123,49.73666,52.32553,41.75015,44.55034,46.37423,49.20998,49.20607,45.14384,45.83247,49.98947,50.51463,50.31191,52.92038,53.69901,49.86739,46.27613,45.5634,42.48868,38.272,39.45035,40.75249,32.41212,15.39439,12.07806,17.16264,21.14978,22.72189,20.27846,12.78117,5.194634,1.455622,0,0,0,0,0,0,0,0,0,0,0,0,0,0,0,0,0,0,0,0,0,0,0,0,0,0,0,0,0,0,0,0,0,0,0,0,0,0,0,0,0,0,0,0,0,0,0,0,0,0,0,0,0,0,0,0,0,0,0,0,0,0,0,0,0,0,0,0,0,0,0,0,0,0,0,0,0,0,0,0,0,0,0,0,0,0,0,0,0,0,5.584898,24.96908,40.24137,53.63631,67.14703,69.47407,68.24929,70.45008,67.77747,62.2914,66.27788,65.70871,57.12109,52.95903,47.41595,44.6105,44.02462,35.08084,29.83177,42.10565,51.43848,53.76837,47.38017,52.4457,61.01446,59.71604,63.2065,68.11456,69.75969,66.67155,61.11177,60.20036,49.51951,44.84486,42.19181,41.84689,38.41512,40.01698,38.07848,42.25757,37.68958,35.54663,29.30762,33.09606,52.20581,62.65289,67.57584,65.78173,63.21706,59.87969,61.47178,68.1991,68.52564,63.55354,56.81958,53.62956,47.15347,30.50329,9.748969,0,0,0,0,0,0,0,1.012591,2.235634,3.139994,23.73293,46.77269,58.52728,58.49709,54.19577,58.30786
58.42941,54.94624,47.57093,52.66877,42.73183,24.70795,27.28324,58.24641,58.53357,51.62526,46.70465,53.29855,56.7814,41.03931,49.94115,54.17917,49.93013,43.19882,31.89278,35.57796,32.62695,39.08585,22.70808,31.17275,37.37008,44.81721,59.52459,60.71925,54.3187,48.02355,23.12741,51.76119,59.75779,66.97153,68.65186,64.28636,48.74338,32.56416,31.56428,52.11814,58.7375,63.79609,53.72479,46.8925,59.79324,65.1943,62.16315,58.31754,57.92757,46.84256,46.99201,54.93528,41.33145,22.37535,33.21236,54.97754,61.12517,50.00325,33.17641,25.40391,25.99537,23.77019,26.18332,44.07891,49.36,56.71691,44.72653,18.29215,39.45247,29.51142,41.95499,42.69719,41.29522,33.29557,35.21376,37.05398,24.25904,28.27728,45.49245,59.32135,64.90256,63.40774,61.04169,49.01469,47.63512,52.62879,53.5392,51.51694,40.08508,34.04265,35.38341,39.42525,48.25023,56.13071,59.22504,50.33672,44.57803,44.22421,33.74786,19.43517,9.882981,11.07108,13.40773,9.776942,13.26498,23.3749,25.25445,22.04406,21.50862,15.99926,8.417179,5.396773,5.784215,12.8608,24.81022,14.75258,0,0,0,0,3.540607,10.95208,26.45373,33.19063,32.30932,34.42151,33.44947,29.73593,23.31519,13.36618,3.540607,0,0,0,0,0,0,0,0,0,0,0,0,0,0,0,0,0,0,0,0,0,0,0,0,0,0,0,0,0,0,0,0,0,0,0,0,0,0,0,0,0,0,0,0,0,2.089097,13.8696,10.04874,14.09642,7.587084,6.708439,14.16988,14.78328,21.52276,21.43686,19.19882,28.40513,12.31203,0,0,11.19989,37.21358,51.69073,57.99755,60.72613,63.03003,64.78143,62.95195,47.9736,12.91228,31.91693,61.55377,67.50323,63.27998,45.45212,29.66903,27.14374,46.77037,52.90329,56.64582,57.8687,55.00642,52.95821,52.03096,56.55251,67.06421,73.14091,74.87344,73.92274,62.57506,22.74903,38.89153,26.17893,48.96704,47.26276,61.12399,63.80479,60.79639,58.55602,57.64084,55.0922,58.97926,71.13527,41.90324,66.21171,67.2606,60.51608,23.9499,46.58841,55.78382,53.94964,37.17747,20.98081,48.66514,63.35793,68.38503,65.5982,64.40339,58.1568,55.43319,58.24938,58.60289,53.16267,21.46961,0.2825486,0,0,0,0,0,0,0,0,0,0,0,0,0,0,0,0,0,0,0,0,0,0,0,0,0.569239,1.533656,1.660715,1.06312,0.8952556,0.6330381,0,0,5.062912,15.44529,35.83089,48.01033,50.87951,50.51886,43.60999,51.46975,57.72964,57.55909,53.81468,50.20303,52.64981,54.82777,49.23626,44.89114,49.44085,49.04524,41.95066,39.16863,36.77649,38.45786,41.17865,43.50957,46.11737,44.33005,35.03652,30.91433,34.11672,36.54966,37.03205,34.58443,29.26243,25.12341,20.328,13.61524,7.444395,1.455622,0,0,0,0,0,0,0,0,0,0,0,0,0,0,0,0,1.455622,5.194634,7.037233,5.767757,3.252331,1.455622,0,0,0,0,0,0,0,0,0,0,0,0,0,0,0,0,0,0,0,0,0,0,0,0,0,0,0,0,0,0,0,0,0,0,0,0,0,0,0,0,0,0,0,0,0,0,0,0,0,0,0,0,0,0,0,0,0,0,0,0,0,0,0,0,0,12.98489,27.80015,36.18681,52.91508,66.07423,69.83431,69.89888,69.14919,67.03792,61.85932,62.84388,66.98291,62.96589,50.24549,47.08632,42.19918,38.42949,37.22314,33.23117,39.36239,41.21606,46.08817,47.48574,58.55767,66.86909,64.91224,65.70496,66.09801,66.25948,64.31938,61.69738,53.97481,35.96046,51.51617,51.03875,37.34214,40.08044,31.68689,38.73341,38.60963,34.27116,37.47731,42.86432,47.85421,53.64224,60.23937,65.06013,66.0077,63.54416,62.29876,63.68443,69.17899,68.2482,57.03362,30.53236,10.81207,3.635181,0,0,0,0,0,0,0,0,0,0,0,0.9811842,17.27049,45.40918,60.14639,59.97246,54.63453,58.6053
56.0503,53.27878,46.49388,43.71037,41.2216,44.00869,43.1555,62.92912,63.29798,50.28248,51.65673,60.31074,57.55534,38.77509,37.3249,50.7737,51.78049,45.84695,13.21425,20.64481,43.57128,54.19326,42.68998,16.8656,5.649861,11.24726,54.65055,59.00705,57.76077,60.10845,52.54329,51.06218,55.04886,62.62965,67.73327,65.52569,64.83207,57.60506,11.75046,43.86334,57.9043,64.10826,54.08106,53.66903,62.21683,68.1268,61.31205,48.27903,55.67093,61.46943,64.12775,60.74585,46.05336,38.08265,40.55931,49.21601,62.16396,61.02016,55.57111,41.6227,12.31558,34.53621,44.84314,46.50018,55.95325,55.83575,15.6079,41.63199,49.10814,46.21933,47.99027,52.09417,45.50454,31.60108,35.0861,54.90271,56.02693,59.25719,62.12822,64.6705,62.88688,61.01392,55.12767,41.45681,46.39784,47.48463,50.51411,55.94031,50.46705,45.54363,39.70494,36.91784,40.68425,50.81935,58.985,54.69271,50.42561,44.74818,36.91336,28.08002,13.95897,5.730358,16.5447,3.707078,14.26207,18.832,15.96201,15.81355,19.41842,16.32643,7.097409,11.57832,13.93448,15.16737,23.67277,14.75258,0,0,0,5.866984,22.38968,34.32346,39.6813,38.31594,32.55564,35.61805,37.1591,35.68183,33.98649,28.38264,13.36618,1.455622,0,0,0,0,0,0,0,0,0,1.360706,3.909811,5.178578,3.909811,1.360706,0,0,0,0,0,0,0,0,0,0,0,0,0,0,0,0,0,0,0,0,0,0,0,0,0,0,0,0,0,0,2.948425,13.84435,8.601173,11.29072,9.019989,0.8864697,7.885058,13.34007,22.90479,29.92863,25.8159,25.12616,6.005834,0.6644077,11.20637,33.2407,50.00636,56.87919,53.23045,52.89321,58.92332,62.90085,60.86626,42.82674,17.55064,35.14139,60.63836,65.81609,62.68425,50.45155,20.91697,42.71112,51.56074,48.40811,37.72639,28.82129,34.34588,52.57652,62.42522,67.94173,72.39597,75.00465,72.72099,55.42241,17.35383,42.16031,16.90845,20.81997,50.52391,61.15176,44.0539,60.10325,58.81226,55.57069,56.39922,59.38974,63.40699,67.73312,45.02346,65.46183,69.07465,63.63222,22.32864,52.32848,57.4735,54.03854,43.73854,27.72835,47.25605,67.62704,70.09328,62.70464,60.93272,57.83088,54.32058,57.5184,59.57866,54.23082,23.48632,1.681792,0,0,0,0,0,0,0,0,0,0,0,0,0,0,0,0,0,0,0,0,0,0,0,0,0.8055148,1.208366,0.8055148,0.220287,0.3127867,1.06312,0,0.1251145,10.59476,27.15267,47.82178,53.81414,54.05635,55.19326,56.2901,60.27934,63.13482,62.99836,60.88813,57.47528,57.69684,57.48211,53.68439,52.23542,54.32758,48.18655,37.45627,33.29802,35.34177,39.70673,43.70477,47.00143,49.51867,52.44058,50.43518,46.2895,42.44139,36.62597,31.2296,31.08923,30.1374,36.12669,39.0124,34.11399,24.30029,8.731449,1.455622,0,0,0,0,0,0,0,0,0,1.455622,7.444395,13.61524,14.75258,11.63775,11.63775,17.16264,21.97703,22.64652,21.52657,16.39423,8.731449,1.455622,0,0,0,0,0,0,0,0,0,0,0,0,0,0,0,0,0,0,0,0,0,0,0,0,0,0,0,0,0,0,0,0,0,0,0,0,0,0,0,0,0,0,0,0,0,0,0,0,0,0,0,0,0,0,0,0,0,0,0,0,0,0,0,0,15.78735,29.51106,44.43219,58.03074,62.68124,68.51146,71.17825,67.78181,64.84551,59.97314,58.9459,66.49306,67.77547,60.74159,50.42833,45.46377,31.89422,24.19031,21.89292,37.0385,42.05616,48.42933,57.91698,61.55013,67.21273,67.37087,64.89981,60.85759,62.1745,62.41768,60.23158,43.60675,37.14793,58.58651,60.48795,43.90063,31.00795,23.14283,40.82927,44.10651,43.14935,48.78177,56.56075,56.10426,53.00182,50.37394,51.43747,57.69193,61.17598,63.07659,64.93196,68.74945,63.43285,37.48413,7.148087,0,0,0,0,0,0,0,0,0,0,0,0,0,0,10.15863,42.97338,60.67781,61.85093,59.62263,60.91008
55.315,57.63245,50.38853,29.11603,9.688034,17.68817,50.0156,61.0381,63.52304,56.18493,56.32422,52.8722,34.62515,20.51236,34.80228,55.52285,50.7952,24.66177,29.29254,29.10152,5.941484,32.64697,26.30347,15.30427,15.21264,20.87353,34.56825,53.36804,64.70969,67.85413,67.69479,65.33556,63.21632,55.0087,51.07458,61.39124,67.14937,65.81483,46.79591,45.10133,50.74089,54.08394,51.75382,52.79093,62.80118,70.19942,61.99517,50.20332,58.73275,70.71563,71.43804,59.21833,38.46498,29.83309,32.33614,33.48274,51.1638,54.85581,58.22162,53.30016,26.22188,33.61655,37.6297,35.8847,46.25066,49.59948,41.75285,49.87221,49.38522,50.21537,56.42409,55.46885,45.88702,47.75354,58.26651,64.11707,66.41536,67.21111,68.30161,66.35846,61.18457,56.89778,48.94241,36.34109,41.48058,46.70302,47.11547,51.90387,51.39977,49.78212,43.9026,42.5119,42.03085,47.39139,59.6409,61.36744,58.09486,46.73353,38.69721,35.21294,26.78116,20.69432,17.7201,2.907576,18.35132,11.7956,9.784742,16.18967,20.88908,20.31565,16.95881,7.070798,6.876433,8.960545,17.92186,11.74021,1.77233,1.455891,5.194634,19.82607,38.46148,42.37135,41.01936,38.05595,33.21648,33.23547,34.78471,33.87683,36.19781,41.01789,34.84049,15.88914,3.540607,0,0,0,1.455622,5.194634,10.55553,15.03117,18.66881,22.89582,26.2751,26.41937,22.14056,12.02293,2.435903,0,0,0,0,0,0,0,0,0,0,0,0,0,0,0,0,0,0,0,0,0,0,0,0,0,0,0,0,0,2.7618,9.348153,12.50967,10.62247,7.001994,5.016923,1.234004,0.1791368,6.993304,18.85051,19.08647,12.93535,1.139351,7.271328,29.54602,44.82301,50.06947,53.86396,42.5672,41.01355,57.35961,61.38298,60.80257,53.40701,43.22215,30.54811,58.83171,60.6414,60.14669,57.90718,51.25412,58.02316,47.67966,28.11269,29.20256,34.47475,48.69059,61.96375,68.03675,72.75437,75.19731,73.23738,47.76711,45.76227,52.31675,40.88572,27.79126,24.01841,47.53427,64.04277,56.13597,45.9458,58.44912,56.07262,53.60197,60.84651,65.11224,63.25699,41.9113,63.09148,70.16904,67.18217,42.06678,56.63007,63.43035,53.23632,29.82318,12.98662,49.88007,69.56277,69.10651,58.21912,59.82488,61.27868,59.34444,58.64833,56.74553,49.6542,34.75964,13.75765,4.734248,6.395556,6.634656,3.79287,0,0,0,0,0,0,0,0,0,0,0,0,0,0,0,0,0.569239,5.27039,7.389712,5.27039,0,1.533656,1.660715,1.06312,0.8952556,0.8824874,0,2.56529,22.30598,42.77766,54.6734,57.11347,59.218,61.06002,62.90429,64.13421,62.98891,61.33176,60.5587,59.99478,58.61384,54.59104,49.96863,55.62782,57.50847,48.62738,42.92172,34.49966,32.17463,35.88284,42.77929,50.9224,54.09047,56.85552,57.5036,54.84359,48.51588,37.52832,28.56889,26.0553,23.78091,32.33937,37.8869,40.36355,38.41231,26.66432,13.64797,5.767757,4.111279,5.767757,6.107113,3.540607,0,0,0,0,7.444395,21.82779,27.35048,29.04756,29.03234,32.54638,38.02881,36.12669,31.34164,29.88003,28.89779,21.93663,10.95208,3.540607,0,0,0,0,0,0,0,0,0,0,0,0,0,0,0,0,0,0,0,0,0,0,0,0,0,0,0,0,0,0,0,0,0,0,0,0,0,0,0,0,0,0,0,0,0,0,0,0,0,0,0,0,0,0,0,0,0,0,0,0,0,0,0,16.82628,35.36482,52.6838,59.51034,58.68287,64.85535,69.64668,68.52036,65.238,56.61145,51.62756,63.71164,68.51868,67.5623,65.3866,60.17921,47.4225,33.15303,18.48384,36.57549,48.70252,53.5658,60.41179,60.88343,66.1193,68.00168,62.71558,56.93719,59.60503,59.24125,57.43735,44.66479,40.85113,62.95479,62.55977,39.76631,15.07731,3.453037,38.88182,49.2192,54.73649,58.55611,63.36432,62.12476,58.55982,49.13268,39.976,43.79565,48.96673,55.56665,63.23238,63.97951,45.98294,8.885951,0,0,0,0,0,0,0,0,0,0,0,0,0,0,0,2.703636,34.74043,57.86453,62.91662,64.06528,62.94571
60.02295,62.06224,53.3216,44.10056,46.08904,52.67016,55.14167,50.75177,59.83613,60.7383,56.71445,48.74046,44.27951,36.52348,41.75436,56.30798,42.22043,18.81586,38.41763,32.91048,42.49737,50.08823,40.9101,30.23785,20.94382,15.35637,11.3096,46.68927,61.57502,67.10435,69.11254,70.4259,67.7987,54.62906,16.50832,45.67118,65.39876,66.15091,52.74183,45.88731,42.82434,34.43158,19.91357,25.07164,59.10503,69.72147,59.85057,48.08319,64.813,74.26747,72.08007,48.17011,6.968887,14.11726,31.88506,26.5119,39.03768,49.0836,54.77031,50.94009,48.62099,47.53974,33.1409,13.02771,30.26357,47.44274,44.71109,30.53186,44.11146,51.64767,49.83831,42.85797,40.17786,53.94241,60.15866,65.06997,69.32916,66.47221,64.16224,61.21103,56.85623,51.90319,35.97004,19.19369,37.9645,49.74097,49.18651,48.24744,48.57656,45.75974,40.24284,42.60023,42.36929,46.1978,58.91346,64.69926,63.34531,52.6548,45.64862,41.08342,32.01207,27.71502,24.89275,3.452356,18.71967,15.52109,10.91077,11.12518,22.60305,24.70616,20.9595,7.563717,5.257771,7.987826,16.24806,14.37849,9.327991,6.725724,12.84007,25.68001,38.99103,37.55627,34.55943,36.3735,34.75766,34.76868,36.37998,35.61343,36.24386,43.64647,47.34829,36.60682,17.68071,3.540607,0,1.455622,8.731449,20.11547,29.39515,33.93261,38.10885,41.02198,38.71571,33.20819,30.6928,22.89757,9.461781,3.131816,0.6330381,0,0,0,0,0,0,0,0,0,0,0,0,0,0,0,0,0,0,0,0,0,0,0,0,0,0,0,1.360706,3.872521,5.729263,7.28723,6.578675,3.29075,0.1251145,0,0,2.341008,3.308846,2.341008,1.139351,17.58844,33.41582,36.90794,41.47609,50.83151,33.88958,26.82608,54.70155,56.64591,53.4584,51.17145,49.78804,13.36994,54.84626,55.64982,54.60031,63.50263,68.10789,63.605,45.39965,29.62694,37.05213,54.55101,64.71169,69.65669,71.45496,73.1771,70.65636,45.41512,44.79829,55.90172,42.29567,33.29333,37.1707,39.26454,48.7363,63.73199,63.92142,52.98411,43.28127,55.84141,60.57759,64.34458,59.10896,45.27222,19.34114,59.69849,66.49093,66.37122,54.63575,58.70379,60.53915,41.18839,19.2881,32.06267,47.07009,67.64796,67.83572,56.73978,59.90684,63.37059,63.63526,59.66677,45.43737,45.91925,50.70256,41.41145,31.4272,27.61489,24.87723,20.97268,12.35993,4.675291,0.09278741,2.562237,7.731089,9.705855,6.679905,1.708575,0,0,0,0,0,0,0,0,2.964647,11.77515,9.839931,11.77515,2.964647,0,0,0.220287,0.3127867,0.220287,1.89847,14.62889,39.3006,52.48535,57.03137,59.1726,63.02501,62.29377,61.48039,58.85464,53.09958,51.34893,48.58695,45.11838,39.42996,28.41609,25.62585,50.94821,55.40534,51.24621,53.48717,45.83158,32.04503,34.66917,44.93411,53.30228,56.91405,57.31904,56.75594,54.54747,50.20429,43.9822,34.96363,26.10895,23.99018,27.68316,27.64955,37.39346,43.891,41.44319,32.84631,24.6448,24.34568,29.56717,30.69429,25.08142,9.913894,1.455622,0,1.455622,16.39423,30.20515,27.33756,28.57413,34.13041,39.75069,40.53868,36.19127,29.85584,22.19638,24.45052,26.78489,24.35287,15.17675,3.540607,0,0,0,0,0,0,0,0,0,0,0,0,0,0,0,0,0,0,0,0,0,0,0,0,0,0,0,0,0,0,0,0,0,0,0,0,0,0,0,0,0,0,0,0,0,0,0,0,0,0,0,0,0,0,0,0,0,0,0,0,0,0.1897456,19.56228,38.70251,53.46293,60.14629,59.321,59.56412,62.67902,68.06031,69.47625,61.62117,49.67175,59.96567,67.66949,70.56635,72.35079,70.34666,65.48248,58.34823,40.46013,32.58993,47.07805,62.89207,69.09861,68.66576,69.50818,68.24364,55.20439,54.03205,62.1196,60.29781,58.78497,54.75744,54.83449,61.36156,56.91407,38.21006,18.7895,9.482533,38.30547,57.13551,63.79697,62.5545,63.09317,58.3707,52.34453,49.89973,42.61411,42.63494,44.95266,56.2746,61.77958,48.25685,13.92063,0,0,0,0,0,0,0,0,0,0,0,0,0,0,0,0,9.967939,40.20414,54.79686,61.47004,65.54123,65.49476
65.57937,63.11396,56.65705,57.13784,59.8517,49.89429,18.9673,41.09744,60.51254,62.92366,49.65622,34.29377,45.93755,49.76944,52.19195,57.73109,44.33962,34.64575,45.69115,35.11458,43.58806,35.14109,23.96581,19.1748,11.00244,26.18299,41.78791,52.35308,54.52739,61.23356,64.90169,63.36966,51.812,48.075,44.75395,24.21231,56.83558,65.63948,64.41856,60.20702,55.60919,52.09843,47.3249,40.3679,50.09977,65.85603,51.4877,43.04303,70.42169,74.16586,68.64558,51.9567,28.30932,30.67427,35.56247,15.10578,42.90343,57.56226,50.24711,35.72968,56.69826,56.69124,33.27969,24.99168,10.2268,14.90083,19.35967,10.88184,40.7285,55.82259,48.40365,33.40274,38.83168,56.14867,59.73764,63.40512,65.01057,53.87888,44.62949,45.81171,44.61738,35.49572,11.3985,15.09701,24.92362,43.56704,51.25004,50.9643,49.34389,48.13017,40.1444,42.23524,48.89513,49.12173,55.62502,64.25217,64.68681,56.49726,51.31521,48.99676,38.41835,28.78159,25.39562,4.342034,13.2342,13.95848,19.69648,6.564292,23.90056,31.40039,27.86107,25.53789,21.5764,15.31099,14.96509,11.3285,10.31555,6.615742,12.92064,24.45915,38.1473,41.60596,37.81959,37.04458,35.80304,35.78518,37.65612,36.45807,29.9292,32.60523,45.15003,44.81796,34.74796,23.29011,13.66998,12.07806,21.93663,32.61729,36.12147,33.76768,32.73098,30.83756,27.7465,26.86481,33.65334,28.56418,15.47692,8.409781,2.502098,0.5059038,0,0,0,0,0,0,0,0,0,0,0,0,0,0,0,0,0,0,0,0,0,0,0,0,0,0,0,0.3165179,0.4476244,0.3165179,0,0,0,0,0,0,0,0,7.820796,29.59209,29.06236,21.58862,40.27336,54.93221,43.59035,28.2224,53.70465,53.04585,43.54629,37.61906,51.63488,15.52882,50.67293,45.49738,41.52721,61.73628,65.10541,60.19918,56.84375,59.2546,64.10282,69.13571,72.73225,73.10896,71.77106,66.84985,23.16875,49.69322,49.49693,44.8551,22.64353,30.19704,16.18776,22.88067,48.93752,64.16425,64.3464,62.34166,60.41144,47.22371,53.36449,49.48331,12.09152,20.5074,41.69235,53.69801,61.19345,60.42864,33.75574,44.88715,46.88417,26.63691,34.6741,44.64456,54.89007,65.66332,64.77503,57.9201,61.08278,63.04424,62.90056,56.19421,45.88218,40.68269,44.38666,49.31087,48.28112,45.73109,46.38944,46.73841,42.26239,30.62448,15.04331,21.41468,33.3871,34.60208,27.95052,10.52703,0,0,0,0,0,0,0,0,3.731926,14.73929,6.807691,16.33867,7.476247,0,0,0,0,0,7.541398,27.39894,45.56528,54.32496,58.90794,60.7444,64.59563,62.6506,60.1066,60.019,58.29243,56.30828,49.24014,36.7869,23.82038,12.3308,24.10728,41.97358,43.9192,46.7792,53.78596,54.64645,46.08779,42.30291,42.88535,48.63596,55.56067,57.23425,55.25669,53.35397,52.4734,51.07757,44.14783,32.89409,30.8804,29.84585,26.76072,30.78588,37.69621,41.65506,41.09653,39.59643,41.72996,42.38299,40.72705,41.52364,31.0553,17.16264,11.63775,14.28174,26.18497,32.41935,26.82031,22.80872,26.37419,31.47225,28.39474,27.64955,31.19796,26.16003,16.46595,21.06801,27.09332,24.10978,12.76263,3.540607,0,0,0,0,0,0,0,0,0,0,0,0,0,0,0,0,0,0,0,0,0,0,0,0,0,0,0,0,0,0,0,0,0,0,0,0,0,0,0,0,0,0,0,0,0,0,0,0,0,0,0,0,0,0,0,0,0,0,0,0,1.030216,19.72901,40.42125,51.1217,60.1497,62.14296,53.80774,51.93177,64.05597,70.19553,67.78833,61.67289,62.78431,67.14975,69.86711,72.47467,71.92478,67.61954,63.59636,54.31132,37.22997,32.88502,51.87504,68.90594,72.56123,73.33865,69.23336,51.48515,48.8938,60.97716,60.20983,63.00766,64.13902,58.6851,57.86009,53.80017,44.17482,27.01178,30.78504,50.00677,62.72102,68.16546,62.11096,50.49925,39.21293,25.72838,37.28322,34.53188,43.48497,51.40879,59.24482,53.08844,21.71024,0.7595032,0,0,0,0,0,0,0,0,0,0,0,0,0,2.688462,4.466641,8.309384,32.35495,52.97311,56.1118,58.26678,65.00059,69.35999
62.88242,55.93014,53.36478,57.21565,59.91671,51.57127,24.92678,41.23113,65.08968,63.6922,41.74665,10.07171,31.20842,50.37081,59.28054,61.91249,51.79755,32.05004,38.5185,29.12983,38.19961,28.34304,17.19924,16.27453,38.91226,49.39313,53.22182,56.66454,57.10049,54.41298,51.72807,42.07516,55.79262,56.41386,44.09867,22.80117,36.49795,54.5515,63.05151,62.06895,56.47231,52.99881,49.95183,48.86774,39.43482,59.24024,48.45385,52.42526,71.4054,72.48062,64.06078,55.8375,54.38387,56.90488,35.13875,37.42464,50.09487,59.26938,45.66581,44.21704,63.15524,52.13877,19.69064,15.33363,16.7342,10.55106,6.702912,15.4029,26.56077,51.15359,56.66076,56.59916,55.97609,57.82687,60.17567,59.54583,53.42485,37.44203,26.75764,34.27175,27.34887,5.437145,9.556046,21.97086,10.0788,25.80486,39.42174,47.48704,49.7757,52.70961,35.5225,36.76035,51.1623,54.26754,57.21573,63.06396,64.34139,59.27127,54.53828,55.59004,50.37692,36.76666,23.54092,6.815465,11.62637,3.76442,22.86886,17.63105,19.35262,34.83254,36.05902,37.40916,35.64477,29.98329,22.13697,12.02297,9.127677,3.448384,12.08933,26.03629,41.68688,46.59341,42.7128,35.78989,30.61858,30.09788,32.72933,34.22506,29.32416,26.01222,38.50835,43.45853,41.43027,39.97214,32.35068,25.31413,31.28428,37.71998,34.27998,24.29362,16.22511,11.1595,11.84365,18.20811,34.10079,32.26574,17.06584,12.51126,9.622612,5.339316,1.360706,0,0,0,0,0,0,0,0,0,0,0,0,0,0,0,0,0,0,0,0,0,0,0,0,0,0,0,0,0,0,0,0,0,0,0,0,2.08816,18.41086,32.05395,15.25874,8.16568,30.66954,52.9947,48.79818,40.34384,54.40443,55.03796,49.48024,45.35831,52.79233,12.46359,48.06867,35.89831,43.53512,56.48757,54.02922,62.39385,66.25911,70.28909,72.80303,74.15048,73.97777,71.1944,62.19827,21.31783,59.03618,52.70162,35.76025,29.12963,19.50465,24.99695,34.03476,23.53942,44.96807,63.14997,63.87296,64.4371,68.68706,63.38542,44.18505,39.02777,50.55789,53.31133,53.71719,53.68869,59.46375,57.93757,28.21254,40.79163,43.39143,10.68902,36.46548,47.78637,62.55915,68.98882,66.27532,63.96954,62.69881,58.50671,54.346,48.3773,52.0043,46.18798,25.96643,39.19498,50.1315,56.88883,60.84629,61.53403,60.40654,58.51846,53.50911,49.32264,43.10785,35.51894,38.68498,22.96528,3.726202,0.6644077,0,0,0,0,0,0,2.341008,16.58736,9.606398,16.51002,11.30355,0,0,0,0,2.530645,15.60041,32.74067,46.99362,56.74586,61.62046,60.5796,63.78562,61.74943,59.10482,62.07869,59.49734,55.44041,50.49267,44.91478,42.5341,32.4136,32.57116,34.76666,29.86785,29.89732,40.14344,52.09389,54.45781,47.96761,35.0329,35.3787,39.46362,49.68658,49.50875,49.36598,53.68369,53.74563,49.3885,39.7262,34.16528,29.75646,25.92815,25.65761,27.6384,34.64452,40.37949,44.7328,46.06701,42.99466,40.91011,46.27573,45.3964,37.16513,30.74615,30.79944,31.52131,27.6641,23.89607,12.06826,12.31054,16.75725,10.32687,9.29646,26.76776,33.54518,20.42797,14.11008,21.78851,22.9747,19.71788,9.974979,0,0,0,0,0,0,0,0,0,0,0,0,0,0,0,0,0,0,0,0,0,0,0,0,0,0,0,0,0,0,0,0,0,0,0,0,0,0,0,0,0,0,0,0,0,0,0,0,0,0,0,0,0,0,0,0,0.5381398,0.760533,4.79865,9.271671,9.456648,18.03709,42.78076,49.68771,56.83595,60.39269,52.72309,47.81081,57.61274,66.17645,67.11908,65.05387,63.18229,63.68225,66.43952,70.245,71.24671,68.87455,66.18499,59.34924,50.07834,24.75256,25.25707,63.80357,71.32077,73.55033,70.53818,57.91216,48.35532,56.48515,57.22232,63.9215,68.23062,63.96827,61.40779,60.49461,56.9702,47.84412,53.723,58.37791,62.10279,66.55186,56.64606,25.00626,30.93153,26.57134,14.43612,34.2424,50.3764,55.08153,51.16994,27.98915,3.855798,0,0,0,0,0,0,0,0,0,0,0,0,0,4.737062,18.0987,29.15378,42.03661,55.07291,62.15361,61.03874,57.32502,64.94578,72.66756
60.82504,59.34645,60.16461,58.58284,55.19364,61.43354,49.25159,59.2041,68.21912,59.20248,29.52842,10.16562,9.779134,31.27825,54.72552,61.109,57.81633,37.07006,31.00886,29.34481,41.56012,36.93415,33.47938,40.68521,41.24953,42.14024,53.35748,58.07907,59.98677,52.15309,46.47695,52.51539,59.65648,53.18405,39.32311,17.88873,13.97288,38.63805,52.08857,53.76004,46.03077,40.15674,35.58452,42.46476,9.626186,50.83588,48.88186,57.52349,70.25941,71.14835,63.27127,58.67427,59.73603,64.33965,59.35704,59.24277,57.74364,53.48674,47.64837,52.47479,57.76526,33.3403,15.06705,8.652173,21.33637,26.87086,28.04108,18.13924,14.50059,35.00161,50.93204,61.37213,64.45261,61.52951,59.35766,52.55394,45.98207,39.80315,35.40637,36.91879,12.88408,14.3353,10.77335,22.52395,12.68431,17.15228,22.32533,37.21145,49.8508,55.86851,35.85267,39.16063,41.99002,50.64517,58.42017,61.831,64.02764,63.09922,58.77751,59.84738,57.05954,40.30423,18.53014,11.58145,13.48403,10.02028,22.85101,30.26799,15.96379,28.47326,37.71581,36.12238,37.27389,41.05847,38.66775,29.20065,18.68218,5.362826,10.557,29.46231,45.07284,46.29507,41.09158,31.18405,19.58583,23.23091,31.29134,35.88888,38.4996,35.2582,37.60154,40.63453,40.69772,39.94324,35.0578,29.49501,32.75756,36.26315,28.78937,19.17611,9.848998,4.23258,2.220261,8.171376,29.12643,33.50801,15.04621,13.47366,16.85428,13.64455,7.420503,3.200083,0.6644077,0,0,0,0,0,0,0,0,0,0,0,0,0,0,0,0,0,0,0,0,0,0,0,0,0,0,0,0,0,0,0,0,0,0,4.77393,21.26644,21.83232,24.52369,28.1047,32.10438,50.98021,49.83572,44.02139,51.97079,58.02148,61.96301,59.02113,55.88795,25.39636,47.48809,37.217,48.77753,59.03201,58.9131,64.90562,67.09117,68.18558,69.14902,67.39185,59.50684,40.79725,26.50393,56.80827,59.3783,29.26247,6.373906,14.54254,19.89699,18.48558,47.46039,23.89954,33.02694,54.16359,62.0501,64.09011,66.45212,65.54289,48.94654,38.09007,51.11725,55.54872,59.62657,60.37554,57.58783,56.52816,38.32753,51.04569,51.24669,17.61343,52.73483,55.58633,66.13169,69.21127,63.12,58.7858,56.90926,51.76982,31.57392,28.40235,49.75338,56.29604,52.1515,54.03968,55.56661,59.05912,61.72618,64.50948,65.72234,65.61246,62.75589,54.85237,37.87835,28.26701,40.15652,34.84994,26.43382,21.49003,16.26472,9.329108,2.25238,0.5814822,0.4111691,0,0.4432315,14.4083,12.80039,14.49648,12.27804,1.061278,1.061278,0.4747775,0,7.339758,23.88059,37.25494,50.092,59.42213,63.83985,61.32101,62.05255,56.82915,57.0787,56.28502,35.7913,43.01072,46.77428,37.29219,39.15718,39.43694,33.16528,29.08698,36.10662,38.92704,40.47783,46.60855,50.76015,49.45185,38.45712,31.15596,24.69688,34.19702,40.38654,42.88821,53.14815,53.56313,46.31176,34.99963,22.39043,15.74766,18.5397,26.80702,33.3377,39.88479,42.7871,46.43949,45.18066,41.38648,39.14395,42.43378,44.48764,43.73863,42.60032,37.3417,26.90659,17.28902,14.79326,9.133058,13.88219,15.71452,10.4528,6.648948,17.05343,27.74723,23.98842,16.79766,17.2194,16.94389,20.95567,15.09079,1.455622,0,0,0,0,0,0,0,0,0,0,0,0,0,0,0,0,0,0,0,0,0,0,0,0,0,0,0,0,0,0,0,0,0,0,0,0,0,0,0,0,0,0,0,0,0,0,0,0,0,0,0,0,0,0,0.02797645,6.605508,15.07083,27.77161,33.18993,31.49236,25.48011,44.75986,51.30672,52.19223,51.79046,46.36368,42.00037,49.31702,59.67545,64.50948,64.61476,62.02305,61.85672,64.74134,68.77921,71.42183,72.07042,70.1563,64.28864,59.34491,47.72298,38.52699,59.93887,67.56375,71.08189,70.80655,66.01693,59.03339,57.90286,58.53744,62.71978,68.74599,66.95688,65.61063,65.48492,63.71954,60.47184,64.24374,63.22892,59.57383,63.43359,54.56786,24.27339,27.09325,32.93096,17.49662,40.45565,49.12104,44.05659,24.21366,3.855798,0,0,0,0,0,0,0,0,0,0,0,0,0,0,12.57849,31.48695,43.35799,56.04313,62.49917,65.78044,64.56561,63.34746,68.81158,73.70009
63.94342,64.67945,62.17514,53.41103,52.51991,59.60373,62.31833,68.97684,68.56512,50.85041,20.69407,25.63803,27.28387,23.24338,33.13195,57.7611,61.3764,40.65886,33.94878,36.52436,46.30108,33.99958,36.45957,50.44773,48.18721,46.00307,61.3633,61.80078,55.13837,32.75526,51.3493,55.68692,55.06131,54.45287,51.67002,31.06005,23.36875,26.006,22.70725,34.56497,29.78065,11.90421,14.8559,43.89285,27.09338,47.36802,50.06347,60.73625,70.82758,70.72472,62.32534,49.90054,54.76305,62.39899,66.70542,66.43727,58.55939,39.57712,41.69362,50.35707,46.1842,36.98814,35.13952,21.6868,28.40103,36.63723,35.05131,36.6162,24.93472,24.64727,56.81345,62.35917,64.93545,63.75292,56.16673,43.8373,49.10801,53.74984,43.02337,30.10853,5.923377,16.24323,10.65756,21.15526,17.31471,21.09466,27.63448,34.68255,49.57741,54.21857,46.10929,37.81892,24.40172,33.43828,52.57386,59.23168,63.52766,65.53841,63.09317,62.0513,57.57574,42.79504,27.38123,4.572989,19.59397,20.34113,24.72279,34.53619,30.1868,20.92632,26.55035,27.60667,28.86384,38.87229,46.45452,44.70545,34.04758,17.77104,9.122639,33.72454,44.3456,43.00668,42.12602,35.70485,23.41968,21.27718,31.5157,37.30938,42.02564,42.07054,38.84076,36.58724,37.10626,36.26693,27.72597,23.49903,25.17442,24.92139,15.63611,12.95779,14.8064,10.52923,15.31876,13.82135,24.4329,29.5388,14.01154,9.329022,12.67152,17.21963,16.20659,10.32838,2.463707,0,0,0,0,0,0,0,0,0,0,0,0,0,0,0,0,0,0,0,0,0,0,0,0,0,0,0,0,0,0,0,0,0,0,5.599337,16.69253,17.77747,23.20155,24.24468,30.78081,48.20415,50.82317,46.71206,45.9179,52.78775,64.64442,67.35587,63.83708,43.3737,27.33692,42.38229,52.82085,51.74548,36.60261,23.73085,44.04728,53.00523,53.48933,42.0167,2.186865,39.50678,51.92757,54.18354,47.39745,27.70093,31.89022,30.64541,23.54966,36.9204,40.95189,5.08284,26.00941,33.13354,58.59521,66.91098,64.11734,62.94404,51.1548,39.48665,54.60853,59.68274,62.04656,57.65944,43.8534,47.50025,23.24966,53.46293,51.05829,43.95141,60.101,56.15134,64.84395,66.18546,49.91135,39.17052,49.22425,45.84135,9.978114,13.73904,38.85406,58.84187,64.40245,62.72273,58.50478,55.89322,54.24565,57.0342,62.16268,63.6899,59.93378,50.88709,39.79462,31.20196,39.71946,40.51895,41.86564,43.36609,41.12014,34.96693,23.06484,17.39177,14.22059,14.0247,19.19676,21.07931,11.17128,12.93971,10.71798,11.20637,10.33691,5.365712,2.283534,16.40654,34.2538,45.53675,53.31743,60.06603,64.43957,60.44812,57.25078,46.73834,54.88823,57.01999,30.7658,16.54123,40.91599,28.7534,33.86908,44.93397,35.68929,35.95612,41.33655,44.79029,43.69551,39.13965,41.91772,49.12145,47.69932,38.21943,27.77263,28.72637,37.2841,39.95859,52.56212,54.19227,45.90872,35.27079,25.11409,16.02998,19.53007,30.07578,38.87607,43.24076,45.57364,47.33041,46.04803,41.14586,35.22678,35.88125,38.19042,43.22181,45.99527,41.65538,29.30552,15.01174,3.035833,6.117441,21.53259,23.30189,16.56306,7.460193,18.64421,18.21928,21.28124,21.71513,17.44791,16.59677,21.67153,18.96295,5.194634,0,0,0,0,0,0,0,0,0,0,0,0,0,0,0,0,0,0,0,0,0,0,0,0,0,0,0,0,0,0,0,0,0,0,0,0,0,0,0,0,0,0,0,0,0,0,0,0,0,0,0,0,0,0,4.045059,21.38026,34.06192,41.66899,39.92262,39.67842,36.11187,40.88164,48.502,46.69027,45.47209,42.06255,33.65593,36.61456,46.16528,53.47899,57.19981,55.93743,57.30965,62.13273,66.89696,70.46243,72.51335,72.0744,67.7489,63.13665,59.16916,51.41176,57.5507,63.15052,64.44971,67.67638,67.61802,64.12451,62.02208,61.0154,61.42229,66.64906,66.13271,63.97619,63.53001,63.45445,66.21221,68.0573,65.49936,62.78605,64.25101,58.35962,32.87709,17.82741,29.041,38.35267,48.09375,49.68616,28.34473,3.918866,0,0,0,0,0,0,0,0,0,0,0,0,0,0,0.886028,22.46099,41.23993,50.50403,59.18893,61.86451,63.69417,62.87619,64.61149,69.59921,70.8654
