22.90484,24.96795,26.55497,28.61808,30.19593,31.25191,31.74022,32.79619,33.34249,32.79924,31.70054,31.74022,32.33535,32.94268,33.01898,34.97833,37.09638,38.56742,38.02722,38.79326,38.79326,37.838,37.838,38.56742,38.79937,37.69456,36.60197,36.2693,37.29781,36.75761,36.21742,36.21742,36.75761,37.29781,37.56943,37.02924,35.93054,36.47684,37.62437,38.81768,41.03033,43.27657,44.08838,44.51566,44.9826,45.43124,44.86358,45.19319,45.5991,44.95514,44.8941,44.81475,44.25014,44.77202,44.77202,43.63059,42.49527,43.01715,42.45864,42.44949,41.89404,42.45254,41.32943,39.18696,36.56534,36.64774,36.70573,35.69554,33.20515,32.79619,30.89788,29.08808,27.82457,25.30367,22.88653,21.12251,21.36056,21.13166,21.61997,21.39413,20.69523,19.81322,18.68705,17.57309,17.10309,15.87316,15.74193,16.67887,17.49374,18.44595,18.84575,18.2079,17.60666,17.57004,17.08784,17.55478,18.04004,18.56498,18.60465,18.2079,16.77959,15.3879,14.54251,15.17427,15.40316,15.39095,16.40115,16.59647,15.47336,13.27901,11.222,11.222,11.222,11.07551,9.555637,7.825185,6.100836,4.461942,3.72032,3.021425,3.369346,3.726424,3.729476,4.083501,4.068242,4.785448,5.139474,5.890252,6.668498,7.874016,7.858756,7.443692,6.717329,6.055057,5.359214,5.453824,6.048953,6.946225,7.672587,7.675639,7.498627,7.611548,7.41012,7.309406,7.288043,8.099859,8.499664,8.099859,7.288043,6.900445,6.503693,6.1222,5.36837,4.26967,2.942074,2.414088,1.989868,1.141427,0.5615577,0.4852591,0.9308429,0.4577916,0.271623,0.271623,0,0,0,0,0,0,0,0,0,0,0,0,0,0,0,0,0,0,0,0,0,0,0,0,0,0,0,0,0,0,0,0,0,0,0,0,0,0,0,0,0,0,0.2380516,0.8789599,2.475127,2.234023,2.014283,2.328633,2.334737,1.797595,1.107856,1.385583,2.737594,3.653177,3.653177,3.900384,3.900384,3.653177,3.998047,4.361228,5.35311,5.450772,5.832265,7.97473,9.876091,11.83544,13.54758,14.06946,13.807,13.09284,11.98804,10.95343,10.95343,11.37154,11.06635,9.967649,9.537325,9.790637,10.517,11.98804,13.52316,14.81719,15.61375,14.81719,13.65135,13.77342,13.45602,11.94226,9.40304,7.056095,5.304279,5.487395,7.2209,8.63395,9.259599,10.99921,11.27083,12.69609,14.16407,15.87926,18.41238,20.20082,21.55893,21.18049,20.35341,18.56498,17.28316,16.00439,15.5466,15.0766,14.16407,12.25661,11.5394,11.81102,12.11622,10.95343,9.561741,9.305378,9.494598,9.26265,8.63395,8.426417,8.627846,9.049014,8.844534,9.680767,10.517,10.95343,12.68693,14.26784,15.88537,16.099,15.87316,17.50595,18.71757,19.18757,19.19062,18.93731,18.22011,17.74706,17.74706,17.03595,16.12342,15.46725,15.27498,14.47842,13.72459,14.16712,14.0481,13.35531,12.74797,13.18745,13.72764,13.19355,12.61979,12.12537,12.09791,12.53128,12.50992,12.06433,12.09791,12.57401,12.98297,12.95245,12.53128,12.53433,12.13148,11.37154,11.01447,10.58719,10.58719,10.94427,11.37154,11.37154,11.31356,11.26167,11.222,10.40103,9.604468,9.671611,9.735702,9.241286,8.893365,8.304339,7.614601,7.022523,6.183239,5.380578,4.996032,4.635903,4.635903,4.26967,3.921748,3.228957,2.899347,2.252335,2.249283,2.252335,2.252335,2.249283,1.64805,1.077336,0.814869,0.5676616,0.1403894,0,0,0,0,0,0,0,0,0,0,0,0,0,0,0,0,0,0,0,0,0,0,0,0,0,0,0,0,0,0,0,0,0,0,0,0,0,0,0,0,0,0,0,0,0,0,0,0.1525972,0.3112983,0.6897393,0.8667521,1.486297,1.53818,1.525972,2.121101,2.758957,2.758957,2.758957,2.093634,1.422206,1.101752,1.0987,1.715193,2.694867,3.732527,5.203565,6.354147,7.53525,8.328755,9.573949,10.01343,10.00122,10.41934,10.42544,9.549533,9.070377,9.900507,11.23115,12.57401,13.48654,15.3055,17.61582,18.56803,19.97803,20.97906,22.92926,24.8062,26.63432,28.39834,30.32717,31.02912,32.256,32.94268,34.55411,35.77489,36.4158,37.50534,38.61015,39.73021,40.84417,41.96423,43.09345,44.24098,44.30812,45.45565,46.52078,46.51468,46.99994,46.42007,46.99384,49.16682,51.4924,54.12012,56.06116,57.91674,59.40304,60.61771,60.92291,61.21589,61.5394,61.22505,60.48953,60.87408,59.89135,57.27278,54.69694,53.59824,53.07331,51.94409,50.81182,48.47403,46.71611,44.32033
23.39926,25.46847,26.55497,29.21626,31.33736,31.77989,32.85723,33.39742,35.19197,35.19197,34.00476,33.47067,34.10242,34.20008,34.97833,37.09638,38.56742,40.15748,38.25002,40.38943,40.38638,40.14832,40.15748,41.49423,41.49423,40.38943,38.48807,38.71696,38.97027,39.23274,39.52573,38.96417,38.68339,38.11878,37.57553,36.47073,36.75456,36.47684,37.61826,39.73021,41.34774,43.67942,45.10163,44.9826,45.89513,45.77611,44.62858,45.5991,46.61845,45.97143,45.92566,44.77202,46.43533,45.30306,45.30306,43.59702,43.01715,41.90319,42.45254,42.96527,44.67131,44.67131,44.10059,39.69053,37.05671,36.56534,36.64774,34.606,31.73411,31.29463,29.83581,28.5723,27.31185,25.30367,23.39315,21.12251,21.60776,20.63419,21.13166,20.20082,19.04413,17.10309,16.62394,16.62699,16.17225,15.40316,14.71342,15.74193,17.13667,18.57413,17.88744,18.37576,18.1377,17.60972,17.57309,18.04004,18.04309,18.56498,18.07972,17.72569,16.85894,16.01966,15.08881,14.25563,15.08576,15.39095,15.09492,15.93115,13.90771,13.00739,11.36239,10.93206,9.799792,9.686871,9.140573,7.819081,6.558628,4.138436,3.750839,3.036684,3.366294,3.369346,3.72032,4.052982,4.413111,4.773241,5.514863,5.890252,7.06525,8.691936,8.673625,8.255508,7.474211,7.107978,6.43655,6.113044,6.314472,7.608497,8.304339,8.27382,8.072392,7.742782,7.611548,7.825185,7.697003,8.099859,8.499664,8.099859,7.291094,6.900445,6.1222,5.746811,4.996032,4.26967,3.244216,2.298114,1.681621,1.138375,0.8087652,0.4852591,0.4425319,0,0,0,0,0,0,0,0,0,0,0,0,0,0,0,0,0,0,0,0,0,0,0,0,0,0,0,0,0,0,0,0,0,0,0,0,0,0,0,0,0,0,0,0,0,0.4486358,0.875908,1.928829,3.125191,2.881035,2.881035,2.881035,2.560581,2.105841,1.889153,2.737594,3.067204,3.998047,3.653177,3.308307,3.067204,3.40597,3.744735,4.712202,4.81902,5.832265,7.562717,10.64518,13.102,13.99316,14.90569,14.16712,12.6442,12.31765,11.24641,11.98804,11.67979,11.67979,10.20875,10.20875,10.20875,10.51395,12.75407,14.35024,15.62595,15.62595,13.98706,12.87615,12.25356,11.49362,10.09278,8.072392,6.241226,5.670512,4.92889,6.637979,7.614601,8.630898,10.33999,12.42446,13.44687,14.95147,16.66056,19.24861,21.54978,22.45315,22.05335,21.1866,19.37069,18.55887,17.75316,17.27706,16.804,15.40316,14.16102,12.99823,12.55265,13.2668,12.11622,10.95343,11.3807,10.40713,10.15077,9.494598,10.33999,10.52616,10.30642,10.09278,11.3807,12.25356,13.36446,14.50284,16.13258,17.53952,18.02173,18.23231,19.19062,20.91497,21.68711,21.68406,20.92108,19.42562,19.90173,20.39919,19.65452,19.41647,17.74706,16.40725,14.93316,13.58726,14.042,13.47433,13.35531,13.28206,13.72764,13.18745,12.23219,11.73778,11.68284,11.65232,12.09791,11.64011,10.76116,11.18843,11.64927,12.49771,12.49771,12.06128,12.49771,12.49771,12.13148,12.18031,11.74693,11.31356,12.13148,12.57401,12.54044,12.09791,12.49771,11.63096,11.18538,10.80083,10.45291,10.51395,9.961546,9.125313,8.676677,8.304339,7.2209,6.241226,5.423305,4.648111,4.635903,4.635903,4.635903,3.921748,3.576879,3.228957,2.252335,2.249283,1.944088,1.944088,2.249283,1.64805,1.077336,0.5676616,0.5676616,0.1403894,0,0,0,0,0,0,0,0,0,0,0,0,0,0,0,0,0,0,0,0,0,0,0,0,0,0,0,0,0,0,0,0,0,0,0,0,0,0,0,0,0,0,0,0,0,0,0,0.3540255,0.8301288,1.040713,1.294024,2.255387,2.356101,2.423244,2.768113,3.091619,3.442593,3.442593,2.441555,1.17805,1.17805,1.17805,2.05701,2.722334,3.753891,5.215773,7.107978,7.910639,9.134469,9.940182,10.36135,9.973753,10.36135,9.546481,8.762132,8.72856,9.998169,10.83745,11.71336,12.59842,14.39907,16.20582,17.61887,18.56498,19.08686,20.98517,23.37484,25.30367,27.14704,28.56314,30.1349,31.33736,32.53678,33.59885,34.22755,34.9234,36.01599,37.04755,37.66099,38.25002,39.87365,40.43216,41.54917,42.11988,43.243,43.74657,44.30812,45.27559,45.27559,45.84325,47.43026,49.30111,51.33675,54.50467,56.39687,57.91064,59.72044,60.32167,60.31557,60.92291,60.48953,59.68077,59.5007,58.89336,57.27278,54.69694,53.59824,53.07331,51.36117,49.0661,47.31124,44.95514,41.98254
22.88348,24.93133,26.49393,29.75645,31.8684,32.32314,32.32314,34.00171,35.93054,36.61417,36.06177,34.82573,35.51547,35.65892,36.55619,38.79326,39.59898,39.81566,39.26936,41.46981,42.87981,42.88897,42.58988,44.01208,44.02429,43.1667,40.94183,41.75365,42.87066,43.17585,42.04053,41.47592,40.91436,39.52573,38.41177,37.29476,38.42093,37.31002,38.48807,40.63969,43.27657,45.66014,46.56656,48.07117,47.40279,46.75883,45.04059,46.03247,47.63474,47.59201,45.87377,45.87377,47.58286,46.43228,45.2939,44.71098,44.13721,41.32637,41.89404,43.52682,45.23592,45.77611,45.19319,40.77397,37.05365,36.0282,37.11164,34.0719,31.19392,30.22951,28.78288,27.53159,25.46542,23.97607,23.39315,21.86718,21.36666,21.12251,19.65757,18.7542,17.4205,16.16615,15.08576,15.08576,15.55271,14.95147,14.25868,15.28719,17.28621,18.70231,18.45205,18.92816,18.85186,17.72569,17.6616,18.6077,19.09601,19.09296,18.13465,18.27199,17.42355,16.0166,15.09492,13.81005,14.63102,14.78667,14.32583,14.63712,13.90771,13.00739,12.56791,10.50784,8.960507,7.913691,7.913691,6.558628,5.719343,4.547397,4.193371,3.409022,3.381554,3.72032,4.052982,4.403955,4.403955,4.776292,5.514863,6.668498,7.458951,8.267716,8.667521,8.255508,8.255508,7.877068,7.156809,7.156809,7.614601,8.487456,9.119209,8.966612,8.472197,8.072392,7.742782,7.507782,7.706159,7.697003,7.697003,7.288043,6.900445,6.500641,5.746811,5.36837,4.635903,3.921748,2.899347,1.879997,1.062077,0.9430507,0.8087652,0.274675,0.06714277,0,0,0,0,0,0,0,0,0,0,0,0,0,0,0,0,0,0,0,0,0,0,0,0,0,0,0,0,0,0,0,0,0,0,0,0,0,0,0,0,0,0,0,0.006103888,0.1129219,0.4516877,1.138375,1.928829,2.801685,3.131295,3.744735,3.750839,3.744735,3.467009,2.649087,2.41714,2.514802,3.40597,3.067204,3.311359,3.647073,3.991943,3.744735,4.715254,5.081487,6.78142,8.61869,10.9809,13.1081,13.99622,14.45706,14.06946,12.5618,12.64726,13.08368,14.35024,13.09284,12.31765,11.25252,10.95343,11.38375,11.67979,13.99011,14.81719,14.81719,14.81719,13.65135,11.37154,9.964598,8.588171,7.684795,6.836355,6.055057,6.430446,6.241226,6.634926,7.614601,9.26265,10.33999,12.41836,14.16407,15.73277,18.27809,20.97296,22.81939,22.84075,23.35042,22.96588,21.55893,20.70134,19.84984,19.03498,18.07361,17.12751,16.99628,15.73277,13.2668,12.12232,12.12232,12.82122,11.67369,10.25453,9.989013,10.41018,11.27388,11.43563,11.63096,11.81713,12.03382,12.48245,14.0481,15.67784,16.59647,17.29231,18.96478,21.18965,22.67289,23.18257,23.97607,23.97607,21.88854,21.13776,21.63218,22.12049,21.36666,21.13166,19.89868,17.32283,15.39095,14.02979,13.47433,13.47433,13.35531,13.35531,13.28816,13.18745,12.23219,11.30745,11.25252,10.79473,10.35219,10.34914,9.500702,9.918818,11.19758,12.07044,11.63096,11.64011,12.53433,12.50992,12.9494,12.9494,12.9494,12.53128,12.95245,13.38888,13.85277,12.95855,12.9494,12.49466,12.06128,12.06433,11.68895,11.37154,10.68791,9.534273,9.38778,8.890313,7.675639,6.56168,5.942135,5.112006,5.054019,5.36837,4.996032,4.266618,4.26967,3.576879,2.896295,2.249283,1.944088,1.64805,1.944088,1.64805,1.077336,0.5676616,0.3418177,0.1403894,0,0,0,0,0,0,0,0,0,0,0,0,0,0,0,0,0,0,0,0,0,0,0,0,0,0,0,0,0,0,0,0,0,0,0,0,0,0,0,0,0,0,0,0,0,0,0.1190258,0.5340902,0.8240249,1.370323,1.901361,2.639932,3.399866,3.582982,3.634865,3.384606,3.729476,4.037722,3.070256,1.822011,1.22383,1.818959,2.758957,3.430385,4.498566,5.942135,7.428432,8.170054,8.997131,9.40304,9.833364,9.754013,9.40304,8.640054,8.691936,9.16804,9.570896,10.43155,10.84661,11.30135,13.04706,15.28108,16.24245,17.6555,18.5955,20.49991,22.42569,24.36977,25.8286,27.26912,28.82256,30.39431,31.98743,32.62223,32.77177,32.84808,33.92846,34.96917,36.05872,36.65385,38.25307,38.80547,39.8706,40.43216,41.54917,42.60514,42.60514,43.09956,44.12806,45.27559,46.42007,48.14747,49.74059,51.92578,53.90649,56.06116,57.59629,58.80486,59.72044,60.31557,59.29012,58.46304,58.02356,57.86486,57.43454,55.28597,54.18727,53.07331,51.31234,48.49234,46.17286,42.61735,40.21241
21.93127,23.90588,25.95068,29.21626,31.25191,32.94268,33.01898,34.74944,35.51852,35.65892,37.09943,36.55619,37.838,38.03333,38.79937,39.81566,41.19819,40.07203,40.07203,40.35281,43.46273,44.59501,45.16877,46.3163,45.4465,44.58585,44.29287,44.87273,46.88091,46.3163,44.60722,44.33559,43.20332,41.76585,40.64274,39.53489,41.0517,39.37923,39.72716,41.9215,44.6652,47.13117,47.05182,49.65513,48.99591,47.76598,46.04468,47.59201,48.15662,49.26753,48.11085,48.11085,48.1139,46.42617,45.85241,44.15858,43.01715,41.32637,42.44949,43.52682,45.23592,47.51266,45.19319,42.96527,39.70274,38.63151,37.10554,34.0658,31.58762,30.15016,28.78288,26.49393,24.9649,23.48166,24.4949,22.88653,21.13471,20.88445,19.41647,18.01257,16.66667,15.39095,14.63102,14.63102,14.49979,14.94537,14.83245,15.87926,16.34316,17.28621,18.09498,18.57413,19.05634,18.37576,18.75114,18.7542,18.684,18.6077,18.2079,18.37576,16.39504,15.00946,14.09083,14.36245,14.63712,14.78667,12.70219,13.572,13.90771,14.10609,12.76018,10.65434,8.554599,7.114082,6.631875,6.235122,5.417201,4.968565,4.968565,4.138436,3.381554,3.72032,4.052982,4.782396,4.773241,5.14863,6.299212,7.474211,8.286028,8.267716,8.255508,7.874016,8.28908,8.28908,7.510834,8.286028,8.725508,9.549533,10.03479,9.735702,8.829274,7.858756,7.742782,7.614601,7.41012,7.706159,7.697003,6.900445,6.1222,5.743759,4.996032,4.635903,4.26967,3.576879,2.899347,1.739608,0.9216871,0.8484405,0.2319477,0,0,0,0,0,0,0,0,0,0,0,0,0,0,0,0,0,0,0,0,0,0,0,0,0,0,0,0,0,0,0,0,0,0,0,0,0,0,0,0,0,0,0,0,0.06103888,0,0,0,0.6958432,1.42831,2.801685,3.665385,3.961423,3.961423,4.666422,3.744735,3.213697,2.972594,2.203504,3.067204,2.200452,2.734542,3.067204,3.40597,3.744735,4.718306,4.974669,7.098822,8.212782,10.9809,12.28407,11.94531,12.37868,13.15998,12.45804,13.71544,14.16712,15.90063,14.25258,13.90466,13.19661,13.19661,12.12232,12.44278,13.99011,13.99011,13.99011,13.53537,12.12232,10.20875,8.844534,7.269731,7.056095,6.836355,6.061161,5.865837,6.634926,7.620704,8.85369,9.909662,10.99921,13.14777,14.62186,17.8142,18.2842,20.97601,23.24666,24.14088,25.14802,25.65464,23.82653,22.95978,22.0564,22.0503,21.06452,20.58231,20.97601,17.8142,15.26888,12.82122,13.14167,13.90161,12.69609,11.24641,10.95343,11.5394,11.97278,10.99921,11.18843,11.81713,13.84057,14.30141,14.7531,15.67784,17.06952,18.49478,20.71049,22.98114,24.80315,26.14295,26.64958,25.8286,22.88653,21.63218,22.61491,22.61491,21.86718,21.60776,20.8753,18.28725,16.31569,14.49979,12.90667,13.47433,12.91278,13.47433,13.35531,13.28816,12.23219,11.30745,11.79882,10.38882,8.658365,8.255508,8.255508,9.076482,9.912714,10.76726,9.90661,10.77641,11.64927,12.09485,13.45907,13.87414,14.32888,13.85277,14.32583,13.87109,14.35024,12.96466,13.40719,12.50687,12.95855,12.95855,12.53128,11.80492,11.01447,10.58719,10.26369,9.241286,7.898431,7.465055,7.269731,6.180187,6.052005,5.795642,5.762071,4.996032,4.635903,4.266618,3.576879,2.899347,2.249283,1.944088,1.64805,1.355063,1.355063,0.814869,0.3418177,0.1403894,0,0,0,0,0,0,0,0,0,0,0,0,0,0,0,0,0,0,0,0,0,0,0,0,0,0,0,0,0,0,0,0,0,0,0,0,0,0,0,0,0,0,0,0,0,0,0.02136361,0.381493,1.040713,1.788439,2.755905,3.0611,4.229994,4.34902,4.193371,3.927852,3.985839,4.275774,3.009217,2.426296,2.130257,2.450711,3.415125,4.132332,5.197461,6.64103,8.005249,7.602393,8.710248,8.707196,9.412195,8.997131,8.414209,7.376549,7.834341,8.28908,9.137521,9.973753,10.8283,11.26167,12.56791,14.35635,15.73582,16.70939,18.57108,20.00854,21.93127,23.9364,24.43386,24.88555,26.91815,28.47464,30.49808,32.09424,31.70054,31.23665,32.83892,33.9132,35.00275,35.54294,37.15131,37.14826,37.70066,38.25002,39.87365,40.92352,40.99677,41.47897,42.538,44.69267,45.84325,46.51468,47.67747,49.89623,51.92273,53.51584,55.47214,56.65018,58.50577,59.11616,57.48947,56.66545,56.83635,57.43454,57.43454,55.78038,54.69999,53.01532,50.65617,47.32955,45.02228,40.94183,39.10456
21.53147,22.92926,25.92932,28.5723,30.73002,33.01898,34.29775,35.65892,35.27742,36.18995,37.69761,39.26631,40.63969,41.46981,41.46981,40.9052,41.7506,41.18904,41.19819,41.47287,43.77708,45.80663,46.94806,47.21052,46.89007,46.59708,46.86871,47.73546,48.94708,48.37026,46.63371,46.38039,45.22676,44.6652,43.52377,41.82384,41.96423,41.20124,41.03033,41.74754,45.09247,47.61643,49.1424,50.67753,50.0061,49.92065,48.16883,48.68461,49.27364,49.27974,49.27364,48.11085,47.52182,46.43228,45.85851,45.2878,44.14637,44.08838,44.67131,44.67131,46.34377,47.51266,45.77611,44.67131,42.44033,40.25819,38.1432,34.53275,32.03931,30.55912,29.19184,27.37594,25.26704,23.28938,23.47861,22.66679,21.40328,19.90173,18.45511,17.74706,16.40725,15.55271,14.78667,14.63102,14.49979,15.54965,16.62394,16.62394,16.01355,16.94439,17.75316,18.22621,18.70842,19.66062,19.52939,18.93121,18.37576,18.27809,18.37576,17.89355,15.91894,14.54557,13.72764,13.91992,14.63102,13.72459,12.26271,12.53128,13.90771,14.10609,12.76018,10.22096,8.28908,6.833303,6.34194,5.948239,5.484344,5.417201,5.35311,4.916682,4.501617,4.461942,4.065189,4.419215,5.151681,5.920772,6.680706,8.304339,8.28908,8.267716,8.255508,8.286028,8.28908,8.286028,8.255508,8.658365,9.494598,10.33694,10.33694,9.976805,9.006287,7.669536,7.352133,7.614601,7.507782,7.751938,7.291094,6.500641,5.36837,4.996032,4.635903,4.26967,3.573827,2.896295,2.249283,1.39779,0.601233,0.32961,0,0,0,0,0,0,0,0,0,0,0,0,0,0,0,0,0,0,0,0,0,0,0,0,0,0,0,0,0,0,0,0,0,0,0,0,0,0,0,0,0,0,0,0,0.06103888,0.06103888,0.1587011,0.106818,0,0.4516877,1.141427,2.157724,2.981749,3.872917,4.901422,4.590124,4.01941,3.467009,3.213697,2.41714,2.41714,1.593115,2.41714,2.734542,3.067204,3.40597,4.361228,4.974669,7.098822,8.61869,10.64518,11.49667,10.72148,11.15486,11.94531,13.15998,13.62083,14.90569,15.37569,16.29433,15.54965,16.00439,15.17121,13.52316,13.19661,14.4418,13.99011,13.99011,12.75713,11.67979,10.20875,8.170054,6.653238,6.454862,6.836355,6.64103,6.439602,7.2209,8.228042,9.909662,10.57499,11.70115,13.14777,15.40927,18.27809,19.60264,20.97296,23.64036,25.07782,26.09107,26.61295,26.17347,25.26704,24.86114,25.26704,24.75432,23.75938,23.24666,20.00549,17.32894,15.13764,14.67375,14.67985,13.45602,11.94226,11.66758,12.25661,11.27388,11.00226,11.18843,12.49771,14.10303,15.01862,14.7531,15.67784,17.06952,19.25166,21.98621,23.48166,26.1399,27.51938,28.02905,26.84185,24.68718,22.61796,22.61491,22.61796,21.86718,21.61692,21.36056,19.92614,17.42355,14.63712,13.01654,13.47433,13.01654,12.4733,12.91278,12.82732,12.31154,11.35323,10.92901,9.970701,8.670573,7.443692,7.477263,8.255508,8.661417,9.494598,9.491546,10.34914,11.21895,12.61674,14.01148,14.93011,15.32686,14.81719,14.86602,14.92706,14.40823,13.42855,13.87109,13.40719,13.38888,12.95245,12.13148,11.74693,11.74693,11.31356,10.88018,10.08668,9.009339,8.420314,7.898431,7.465055,6.708173,5.939083,5.795642,5.36837,4.996032,4.266618,3.921748,3.228957,2.572789,1.944088,1.64805,1.355063,1.355063,1.077336,0.814869,0.3418177,0,0,0,0,0,0,0,0,0,0,0,0,0,0,0,0,0,0,0,0,0,0,0,0,0,0,0,0,0,0,0,0,0,0,0,0,0,0,0,0,0,0,0,0,0,0,0,0.1770128,0.9338949,2.090582,3.189281,3.59519,4.480254,4.654215,4.580968,4.34902,4.098761,4.098761,3.582982,3.634865,3.009217,3.051944,3.692852,4.754929,5.817006,7.208692,7.495574,7.089666,8.035769,8.295184,8.929988,8.701093,8.035769,7.092718,7.30025,7.77025,8.637002,10.25148,11.11213,11.16401,12.09791,13.42855,15.23836,16.62699,18.04309,19.97497,21.93127,22.45926,22.96893,23.42062,24.93438,26.98834,28.98737,30.57438,30.67814,30.72697,31.23054,32.82976,33.91015,34.99969,36.05567,36.05872,36.60807,37.15131,38.76274,39.80651,39.8706,39.87365,40.92352,43.56345,45.27559,45.95312,46.60624,47.67747,49.74669,51.74571,53.30831,54.50467,56.05811,56.65018,55.69798,55.29512,56.06726,56.22902,56.83025,55.1883,53.995,51.74266,50.0763,47.29293,43.8778,40.38638,38.54911
21.61387,23.46335,25.41049,29.09113,31.25496,33.01898,34.29775,36.56229,37.14216,38.15235,40.35281,42.04053,42.89812,44.33559,44.33559,43.20027,43.20027,43.20027,43.20027,42.63871,45.01007,46.73137,47.52182,48.37026,48.04676,47.73546,48.33059,49.78637,50.10987,51.37643,50.57682,49.41403,48.25124,46.16371,45.01312,42.74553,41.96423,40.63969,41.9215,43.68553,46.13624,48.07117,50.14344,51.70909,52.24013,52.1913,49.85961,50.38454,49.81383,48.1139,48.69987,47.52182,46.95416,45.85241,44.69877,45.23286,45.24507,46.37429,47.52182,46.3865,48.68461,50.40896,48.09864,48.1139,44.6652,42.99884,38.63151,36.02209,32.45437,30.55912,29.60996,27.75438,25.63633,23.11237,21.68711,20.91497,20.91497,19.66978,18.21705,16.80095,14.82024,14.47842,14.32583,14.16712,14.16712,15.08576,16.77959,16.77959,16.16615,17.1092,17.88439,17.88439,18.36965,19.47751,19.31881,19.17231,17.979,18.45511,17.98205,17.979,15.4581,14.54557,14.25563,13.91992,13.58726,12.26271,11.95446,12.67472,14.55472,13.6544,11.68284,10.39187,8.008301,6.937069,6.940121,6.067265,6.555576,5.948239,5.789538,5.347006,4.916682,4.861747,4.81902,4.791552,5.151681,6.299212,6.287005,7.474211,7.458951,7.855704,8.658365,8.661417,9.07343,8.658365,8.261613,9.506805,9.90661,10.34914,9.10395,8.768235,8.185314,7.501678,7.352133,7.2209,7.022523,6.921809,6.500641,6.1222,4.996032,4.635903,4.26967,3.573827,2.899347,2.252335,1.64805,0.8240249,0.2411036,0,0,0,0,0,0,0,0,0,0,0,0,0,0,0,0,0,0,0,0,0,0,0,0,0,0,0,0,0,0,0,0,0,0,0,0,0,0,0,0,0,0,0,0,0,0.1587011,0.3021425,0.6958432,0.4486358,0.2380516,0.2380516,0.875908,1.550388,2.658243,3.26558,4.904474,4.532137,4.590124,4.007203,3.131295,2.646035,1.593115,1.596167,2.102789,1.883049,2.200452,2.508698,3.409022,4.718306,7.17512,8.719404,10.28505,11.14265,10.38882,11.58823,12.38174,13.62083,14.90569,15.76634,16.63615,17.11225,16.29433,16.29433,16.29433,15.54965,15.61375,15.27193,13.53232,14.35024,13.19661,12.12537,10.20875,8.170054,7.275835,6.65629,6.836355,7.230055,7.419276,7.831288,8.85369,9.494598,10.15077,12.41836,13.90161,16.66056,19.60264,20.00549,20.49075,24.5651,26.03003,26.54276,27.58042,28.16639,27.20808,26.80828,27.20808,27.12568,26.09107,24.14088,20.86614,18.16212,17.21297,15.9281,15.46725,14.54862,13.00128,12.69609,11.80797,11.5394,12.13758,12.3207,13.19661,14.3716,15.29329,15.47336,16.87115,17.07257,18.7603,20.69523,23.17341,25.8286,28.03516,28.56314,28.19996,26.52139,23.89367,23.61289,23.619,23.619,23.36568,22.6088,20.63419,17.60972,16.94439,14.32583,14.16712,12.57706,12.02161,11.50888,11.95752,11.42953,11.42953,10.50784,9.094793,8.267716,7.443692,7.056095,7.477263,7.874016,9.07343,9.912714,10.36135,11.25557,13.12641,14.09083,15.4581,15.91894,15.84875,15.92199,15.4642,14.93011,13.90466,13.87109,13.85277,13.83446,12.98297,12.57401,11.74693,11.74693,11.31356,11.26167,10.45291,10.03174,9.009339,8.710248,7.748886,6.674602,5.789538,5.566746,5.014344,4.635903,4.266618,4.26967,3.576879,2.572789,1.944088,1.944088,1.944088,1.355063,1.080388,0.814869,0.5676616,0,0,0,0,0,0,0,0,0,0,0,0,0,0,0,0,0,0,0,0,0,0,0,0,0,0,0,0,0,0,0,0,0,0,0,0,0,0,0,0,0,0,0,0,0,0,0,0.05493499,0.5340902,1.928829,3.125191,3.396814,4.284929,4.480254,4.837331,4.651163,4.580968,4.34902,4.098761,4.193371,3.235061,3.299152,4.275774,5.374474,5.755967,7.092718,7.236159,7.486419,7.486419,7.715315,7.925899,8.52408,8.121223,7.321614,7.382653,7.892327,9.537325,10.67875,10.92901,10.25148,11.60654,12.92803,14.66459,15.65342,17.51511,19.48056,20.94854,20.97906,21.974,22.9262,23.9364,25.95679,28.01074,29.58555,30.15931,30.72087,31.24886,32.31704,33.38827,35.00885,35.50327,35.50327,36.05567,36.60197,36.60197,38.13404,38.20729,38.76884,40.84417,42.43423,44.69267,45.83715,45.95312,47.08539,48.00403,49.99695,51.54734,52.73454,53.51584,54.12012,53.90649,53.90649,55.70408,55.03571,55.03571,53.41513,52.23097,49.99084,48.91046,46.71305,43.31929,40.38943,37.44735
21.60776,23.96081,25.91406,29.05451,31.25496,32.48489,34.41983,36.91327,38.97027,40.07203,41.76585,43.20332,44.08838,45.58078,46.51468,46.30715,45.73643,44.79644,45.36715,45.3641,46.51468,46.73137,47.52182,49.27364,49.51779,49.2187,49.2187,50.68669,51.61143,53.29,53.09772,51.92273,49.77415,47.67747,45.01312,42.74858,41.96423,41.19819,41.9215,43.68553,46.56046,48.56559,50.66227,52.8322,53.38461,54.5596,52.78337,52.18214,50.41507,49.23701,49.23701,48.12305,47.53708,45.79442,45.23286,46.34377,48.11085,49.27974,49.27974,49.87182,52.81694,52.2035,51.58701,50.42422,46.91449,43.52377,39.15339,37.05365,33.44931,30.97418,29.08808,28.14503,25.9873,22.6088,20.71049,19.9353,20.42056,20.42056,18.46426,16.33706,14.82024,14.01758,14.93316,14.32583,14.32888,15.23225,16.31569,16.31569,16.77959,17.1092,17.57004,18.04309,18.5253,19.64536,19.64536,19.31575,18.70842,18.69926,17.62498,17.0268,16.08985,15.63206,15.28414,13.91992,13.14167,11.81408,12.09791,13.45907,13.65135,12.75407,10.8283,9.131416,8.304339,7.73973,7.208692,7.214796,7.208692,6.555576,6.34194,5.789538,5.722395,5.655252,5.609473,5.169993,5.13337,5.514863,5.890252,5.890252,6.268693,7.443692,8.658365,9.079534,9.100897,8.688885,8.267716,9.525118,9.92187,9.491546,8.310444,7.614601,7.089666,7.098822,7.092718,6.717329,6.564732,6.1222,5.746811,5.36837,4.635903,4.266618,3.921748,3.228957,2.249283,1.64805,1.077336,0.3418177,0,0,0,0,0,0,0,0,0,0,0,0,0,0,0,0,0,0,0,0,0,0,0,0,0,0,0,0,0,0,0,0,0,0,0,0,0,0,0,0,0,0,0,0,0,0,0.4516877,0.872856,1.336751,1.336751,1.336751,1.065128,1.065128,1.272661,2.105841,2.981749,4.233047,4.532137,4.904474,4.590124,4.01941,2.560581,1.797595,1.797595,1.797595,1.306232,1.590063,1.883049,2.832204,4.45889,6.879082,9.125313,9.866935,10.70622,11.14265,12.38174,13.62083,14.51505,15.37569,17.11225,17.53342,18.40933,18.00647,17.51816,17.11225,17.65244,16.82842,16.46829,15.15901,15.15595,13.99011,12.867,11.37154,9.250443,8.319599,7.684795,8.075444,7.8496,8.258561,8.661417,9.07343,9.07343,10.15077,12.41836,15.07355,17.93933,19.11433,20.86919,22.24867,24.56815,25.07782,25.5875,27.12568,28.68217,28.23048,28.76152,27.7147,27.63535,26.09107,23.63425,20.86614,19.88647,19.41036,18.07361,15.47336,14.54557,13.77648,12.69609,11.3807,11.96972,14.03894,13.76122,13.48044,13.92297,15.12238,15.75108,16.40115,17.32283,17.53952,19.4592,22.66374,24.4949,26.64958,28.56314,28.19691,27.36068,25.19075,24.90081,25.41049,25.41049,24.62919,23.36568,20.8753,18.95868,18.28725,16.01355,14.93011,13.15083,12.02161,11.08161,11.08161,11.08161,10.56583,9.131416,8.267716,7.858756,7.858756,7.443692,7.8496,8.658365,9.912714,10.77641,11.25557,11.73472,13.12336,15.09492,16.57206,16.56595,17.0329,18.09192,17.4968,16.94744,15.85485,14.32583,14.31362,13.83446,13.39193,12.57401,11.74693,11.31356,10.87713,11.26167,11.26167,10.40103,9.604468,8.911676,7.892327,6.32668,5.188305,4.822072,4.648111,4.266618,3.921748,3.921748,3.576879,2.572789,1.944088,2.249283,2.572789,1.64805,1.077336,1.080388,0.814869,0.3418177,0,0,0,0,0,0,0,0,0,0,0,0,0,0,0,0,0,0,0,0,0,0,0,0,0,0,0,0,0,0,0,0,0,0,0,0,0,0,0,0,0,0,0,0,0,0,0.1159739,0.3418177,1.080388,2.209608,2.960386,3.863761,4.095709,4.651163,4.480254,4.654215,4.80376,4.58402,4.34902,3.738631,3.845449,4.547397,4.919734,5.282915,5.929927,6.842459,7.321614,7.318562,7.526094,7.709211,8.035769,7.773302,7.233108,7.709211,8.527132,9.769273,10.62687,10.67875,10.18739,10.67875,12.33596,13.67271,14.66459,16.58121,18.5314,19.48056,19.97803,20.9516,21.92517,23.42062,25.45016,27.02497,28.0962,30.15931,31.16645,31.20002,32.2682,33.35165,34.9234,35.45749,36.48599,36.48599,36.56229,36.05567,36.56229,36.55619,38.13404,40.19105,41.72923,43.41696,44.55838,45.70897,46.85345,46.85345,47.85448,49.99695,51.1689,51.33675,51.92273,52.35,52.72844,53.90954,53.69285,52.6735,50.57376,49.98779,48.33669,46.66117,44.46072,42.16261,40.43521,37.52365
21.69322,23.96081,25.91406,28.54178,32.491,33.2082,35.27742,37.14216,38.68339,39.79735,40.95404,43.86864,46.30715,48.41909,48.18715,48.02539,48.02539,46.13013,46.68559,46.30715,47.46383,47.29598,47.52182,49.27364,50.43338,50.11292,50.11292,51.59922,53.50363,54.8709,54.63895,53.45785,52.28591,49.58493,46.87481,44.58585,42.88897,42.14429,42.32131,43.52377,45.40988,48.49234,50.58292,52.82305,53.38461,55.7224,53.35714,53.35714,52.18214,49.81383,50.43032,50.43032,48.64494,48.07117,47.49741,48.12,49.83825,49.87182,50.48526,51.66026,54.04078,53.42428,52.79863,51.59006,49.26753,45.23592,41.32943,38.63151,35.00275,31.92944,28.14503,27.62009,24.9649,20.81121,20.51517,19.71861,19.9353,20.71049,18.45816,16.34011,15.27193,14.63102,15.08576,14.47842,14.93316,14.93316,16.01355,16.4805,16.9505,17.25874,17.72874,18.21095,18.68705,20.4938,20.4938,20.78374,19.48056,17.744,17.28621,16.0868,15.18037,15.74193,15.87926,14.49368,12.70219,12.38479,12.82732,12.75407,12.3207,11.00226,9.543429,8.905573,8.652262,8.652262,8.481353,8.475248,7.748886,7.605444,7.874016,7.227004,6.634926,6.56168,6.042849,5.169993,5.13337,5.514863,5.139474,5.890252,5.539279,6.689861,7.8496,8.673625,8.688885,9.131416,8.691936,9.100897,9.079534,8.658365,8.28908,7.156809,6.314472,6.32668,6.320576,5.942135,5.79259,5.746811,5.36837,4.996032,4.26967,3.921748,3.576879,2.572789,1.944088,1.355063,0.814869,0.1403894,0,0,0,0,0,0,0,0,0,0,0,0,0,0,0,0,0,0,0,0,0,0,0,0,0,0,0,0,0,0,0,0,0,0,0,0,0,0,0,0,0,0,0,0,0,0,0.6256486,1.556491,1.85253,1.858634,2.157724,1.858634,1.556491,0.5554538,0.8087652,1.272661,2.658243,3.195385,4.532137,4.904474,4.309345,3.409022,2.011231,2.014283,1.211622,0.1587011,1.031557,0.8392846,1.980712,3.262528,6.210706,8.374535,9.436611,10.28505,11.49667,13.16609,14.45706,15.76939,15.77245,17.52426,17.93933,19.78575,20.26186,19.78575,19.32491,17.58225,16.76738,15.54965,14.68901,15.15901,13.99011,13.65135,12.5618,11.06635,10.09278,9.399988,9.40304,8.740767,8.475248,8.905573,9.314533,9.71739,10.58109,13.14777,15.87926,18.27809,19.51413,21.27205,23.13984,25.52036,26.03308,27.58042,28.16639,29.28035,29.80223,29.80223,28.67607,28.60282,26.03003,23.63425,21.75426,21.27205,21.65354,20.28627,17.60666,16.26991,15.46725,13.90161,12.55265,13.14777,12.85784,12.58317,14.2068,14.20375,14.66459,15.29329,15.93115,16.85894,18.27809,19.72777,22.18153,23.97607,25.30977,27.68419,28.19691,28.19691,27.36373,26.2101,26.71367,27.03107,25.68211,23.61289,22.09913,20.63419,19.65757,17.81725,16.01966,13.71849,12.02161,11.08161,10.22096,11.15791,10.56583,8.722456,8.267716,7.452847,7.855704,8.261613,8.658365,9.491546,10.76726,11.65232,11.68284,12.67167,14.09083,16.67887,17.27706,17.74095,18.22621,18.70842,19.18757,17.979,16.30959,14.78057,15.22005,15.22005,15.22005,13.39193,12.09791,11.26167,10.39797,10.39797,10.39797,11.18538,10.76116,9.192455,7.785509,6.177135,4.455838,4.464994,4.284929,4.26967,3.921748,4.266618,3.921748,2.899347,1.944088,2.572789,2.899347,1.944088,1.355063,1.077336,1.077336,0.5676616,0,0,0,0,0,0,0,0,0,0,0,0,0,0,0,0,0,0,0,0,0,0,0,0,0,0,0,0,0,0,0,0,0,0,0,0,0,0,0,0,0,0,0,0,0,0,0,0.3418177,0.814869,1.64805,2.801685,3.387658,3.738631,4.651163,4.480254,5.014344,5.383629,5.215773,4.446682,3.640969,3.744735,3.845449,4.452786,4.547397,5.188305,5.820057,6.927913,7.526094,7.886223,8.035769,7.773302,7.88012,7.562717,8.170054,8.453885,9.113105,9.769273,9.949338,10.67875,11.24336,12.11622,12.7907,13.31258,15.65342,17.10309,18.5314,19.91088,20.4053,21.87328,23.42062,24.93438,26.03308,27.58652,29.58555,30.04334,31.5571,32.62223,33.23262,33.78502,34.8532,36.4158,36.96209,36.48599,35.50937,35.50327,35.46054,38.0669,40.04151,41.57663,42.70585,43.26131,44.97039,46.12098,45.70897,46.69474,47.27766,47.42721,49.01422,50.16175,51.75182,51.74571,52.35,51.92578,50.91558,48.83416,47.82701,46.14539,43.88696,42.76079,41.00287,40.43521,36.97736
21.61387,23.93945,26.44815,29.15827,32.15528,34.9234,36.37612,37.60911,38.11878,37.85021,39.54099,43.65806,47.61338,49.19123,49.6002,50.0061,49.02643,47.04572,46.68559,46.86871,48.03149,48.24818,48.46182,49.63071,50.79045,49.85961,50.79045,52.34389,54.88616,54.87701,54.6359,54.04993,52.86272,50.52188,47.27766,44.97039,43.83507,43.04157,43.27657,42.96527,44.84526,47.91858,50.0061,51.08039,51.60532,53.36019,53.94006,53.35714,52.18214,51.00714,51.59922,52.16993,50.43032,50.43032,48.67241,49.85351,51.62669,51.6572,52.85357,53.45785,55.27376,54.6298,54.0072,53.42428,51.62058,47.52487,43.008,40.24294,36.56534,32.45437,29.08808,26.71672,23.59458,21.13166,20.81731,20.51517,20.20997,19.4592,17.74095,16.80095,15.92199,15.27193,15.9342,15.73277,15.55881,15.55271,16.66667,17.12751,16.9505,17.42355,17.88439,18.8427,20.00854,20.4938,20.4938,20.4938,19.15705,17.88439,16.804,15.74193,15.28414,15.28414,15.41232,15.08576,13.27901,13.12946,13.00739,12.31765,11.00226,9.131416,8.304339,8.078496,8.844534,9.457974,10.30642,10.09278,8.899469,9.134469,8.966612,9.235183,7.620704,7.019471,6.491485,5.563694,5.517915,5.14863,5.139474,5.890252,5.923823,6.305316,7.443692,7.858756,7.858756,8.691936,9.131416,9.131416,8.688885,8.267716,7.8496,6.772264,5.926876,5.35311,5.188305,5.197461,5.054019,4.996032,4.635903,4.266618,3.921748,3.573827,2.572789,1.944088,1.64805,1.077336,0.3418177,0,0,0,0,0,0,0,0,0,0,0,0,0,0,0,0,0,0,0,0,0,0,0,0,0,0,0,0,0,0,0,0,0,0,0,0,0,0,0,0,0,0,0,0,0,0,0,0.5554538,1.272661,2.105841,2.420192,2.420192,2.993957,2.667399,0.9979857,0.3326619,0.7385705,2.023439,3.195385,4.532137,4.901422,4.590124,3.662333,2.469023,1.42831,0.6958432,0.3021425,0.7660379,0.8392846,1.669413,2.93597,5.560642,7.269731,8.719404,9.436611,10.64823,12.28407,14.39602,15.71446,15.24446,16.98712,18.38796,19.78575,19.78575,19.78575,19.31881,17.57615,16.29433,15.0766,14.68901,14.35024,14.81719,14.4357,13.32174,12.99823,11.94226,11.24031,10.09278,9.680767,9.409143,9.146676,9.989013,10.8344,12.42446,14.34719,16.65751,18.64433,21.27205,22.63017,24.56815,26.03308,27.05548,29.14301,29.73204,30.33632,30.33632,29.80223,29.201,28.09009,26.03003,24.5651,23.13984,22.63322,21.65354,20.28627,18.919,17.60666,15.9281,14.81719,14.94537,13.14777,12.13758,12.58317,13.75206,14.49979,15.40927,15.58017,16.22413,17.14582,19.05939,20.51212,22.47452,23.48166,24.80315,27.17146,28.56925,28.56314,27.68419,28.19691,28.72795,28.19996,26.01477,24.39419,23.36568,22.6088,20.15199,18.28725,16.01966,13.71849,12.13148,11.15791,10.72758,10.72758,10.14466,9.1833,8.688885,8.264665,9.076482,9.500702,9.903559,11.19758,12.07959,12.09791,12.12843,13.64219,15.63206,17.28621,17.88439,18.36965,18.8427,19.31575,19.18757,18.44595,17.25569,16.71855,16.66667,17.12751,16.66056,14.76225,12.95855,11.63096,10.76116,10.36135,10.36135,11.63706,11.63706,9.976805,7.785509,6.180187,4.61454,4.202527,4.327657,4.266618,4.266618,4.266618,3.921748,3.228957,2.572789,2.572789,2.899347,2.249283,1.64805,1.355063,1.080388,0.5676616,0,0,0,0,0,0,0,0,0,0,0,0,0,0,0,0,0,0,0,0,0,0,0,0,0,0,0,0,0,0,0,0,0,0,0,0,0,0,0,0,0,0,0,0,0,0,0,0.3418177,0.814869,1.355063,2.234023,3.125191,3.866813,4.651163,5.014344,5.179149,5.32259,5.179149,4.654215,3.988891,3.738631,3.491424,4.101813,4.098761,4.455838,5.066227,5.923823,7.120185,7.886223,7.77025,7.480315,7.97473,8.032717,8.032717,8.374535,8.453885,9.357261,9.769273,10.80693,11.39291,11.66758,11.89953,13.23018,15.11933,16.97491,18.39712,19.83764,20.81121,22.2914,23.86926,24.97711,26.50308,27.53769,28.54178,29.5184,31.98743,33.47067,33.60191,34.1482,34.68534,35.77184,36.87054,36.96209,35.46054,34.97528,35.46054,37.50229,39.89196,40.84722,41.41183,41.97033,43.66722,44.40273,45.55637,45.13825,44.68962,44.69267,46.85345,49.01422,50.76299,50.90643,50.91558,49.74669,48.24818,46.66117,45.04059,43.89611,42.73943,41.55832,40.43521,39.26631,36.88274
22.9262,24.40335,27.06464,29.93957,33.12275,36.05567,37.60911,38.41177,38.96722,38.69255,40.39858,42.17176,47.04572,49.02643,50.0061,51.01324,50.58597,48.61442,48.61442,48.42825,49.58493,49.20344,49.40792,51.52292,52.70402,51.15974,51.52597,52.70402,52.70402,53.29,53.69285,53.4609,51.69688,49.35604,47.04572,45.32747,44.74455,43.61228,43.27657,42.96527,43.27962,47.3265,50.55851,49.92065,50.42422,51.5626,52.78948,52.18214,52.75591,52.15467,53.39071,54.01025,52.2035,50.99493,49.26753,51.00409,54.04078,54.68168,55.32259,55.92993,59.04902,57.11408,55.23409,53.42428,51.62058,46.9389,45.81273,41.32637,37.06281,32.91522,30.44925,26.71672,24.46133,22.75224,21.94958,20.81121,19.24556,18.23231,16.78874,15.87926,15.92199,15.27193,15.9342,15.73277,15.55271,16.20582,16.66667,16.66667,17.60972,17.13056,17.60972,18.56498,19.03803,20.00854,20.70134,19.52024,19.31881,18.68705,17.57004,16.94439,15.74193,14.71342,14.95758,14.78667,12.82732,13.12641,12.83037,12.3207,10.15687,9.314533,7.507782,7.104926,9.250443,10.51395,11.37154,11.36849,10.09278,9.305378,8.966612,9.235183,9.10395,8.432522,7.819081,6.805835,6.32668,4.782396,5.505707,5.890252,5.890252,6.689861,7.443692,7.8496,8.267716,8.722456,9.59226,10.01953,9.540378,8.279924,7.443692,6.717329,6.210706,5.191357,4.971617,4.822072,4.327657,4.266618,3.921748,3.228957,3.228957,2.896295,1.944088,1.64805,1.077336,0.5676616,0,0,0,0,0,0,0,0,0,0,0,0,0,0,0,0,0,0,0,0,0,0,0,0,0,0,0,0,0,0,0,0,0,0,0,0,0,0,0,0,0,0,0,0,0,0,0,0,0.32961,1.504608,2.343893,3.26558,3.534151,3.26558,2.603308,1.214674,0,0.5005188,2.285906,2.859672,4.181163,5.221876,4.590124,3.601294,2.990905,2.41714,1.065128,0.8789599,1.928829,1.797595,1.883049,3.17097,4.81902,6.210706,7.562717,8.304339,9.036806,10.9809,13.04096,15.20173,15.20784,15.20784,17.43576,18.81524,18.81524,18.38491,18.40933,16.70634,16.29433,15.07966,15.15595,15.17427,15.17427,13.99011,13.77648,14.67375,14.34719,12.37868,10.82219,10.38577,10.09583,10.517,11.3807,12.69304,14.34719,16.34011,18.41848,19.60264,21.75731,23.13984,24.6475,26.09107,28.60892,30.18068,31.2397,31.316,31.316,31.316,31.2397,30.11964,29.54282,27.50107,24.5651,24.07068,22.1388,19.88952,18.56498,17.69212,16.06849,15.26888,15.72972,13.89245,12.86089,13.31258,14.03894,14.03894,14.95147,16.33706,18.22316,19.18147,19.83459,21.31173,22.79497,23.78685,24.29958,27.52854,30.30581,29.78087,28.35561,29.77477,30.29665,28.56925,26.32607,25.48984,25.69737,23.36568,20.8753,18.48563,16.20277,14.32583,12.70219,11.80797,10.8344,9.805897,9.656351,9.1833,9.59226,9.940182,10.77641,11.20063,11.20369,11.64011,12.50992,12.53433,13.00128,14.54251,16.57206,17.75316,18.8427,19.97497,20.45718,19.81322,20.29543,19.05329,18.27504,17.71959,17.6616,18.13465,17.12751,15.71141,13.85277,12.50992,12.53128,11.18538,11.63096,12.53128,12.07349,11.18843,8.835378,7.495574,5.722395,5.188305,4.822072,4.284929,4.266618,3.576879,3.921748,3.228957,2.896295,2.572789,2.899347,1.944088,1.64805,1.355063,1.077336,0.5676616,0,0,0,0,0,0,0,0,0,0,0,0,0,0,0,0,0,0,0,0,0,0,0,0,0,0,0,0,0,0,0,0,0,0,0,0,0,0,0,0,0,0,0,0,0,0,0,0.3418177,0.814869,1.64805,2.249283,3.183178,4.1598,5.063175,5.441616,5.691876,5.551486,5.551486,4.837331,4.223891,3.988891,3.845449,4.452786,4.098761,4.455838,5.066227,5.923823,6.924861,7.233108,6.973692,7.17512,6.882134,7.288043,7.697003,8.481353,8.594275,9.116157,9.561741,10.37356,10.53226,10.50784,11.35628,13.76122,15.72667,16.77654,18.2079,19.154,21.10724,22.70646,23.37484,24.47659,26.00256,27.54685,28.01074,29.5184,31.5571,33.06781,34.55411,34.55411,35.48801,36.18995,36.31508,35.8634,35.94885,35.46054,34.9234,37.41684,39.18086,40.09949,40.09339,40.84722,42.5441,43.27351,44.80864,43.41696,42.98969,43.09956,44.69267,47.27766,49.59104,49.89623,50.4761,48.83416,47.25325,45.04059,43.31624,42.73637,42.73637,41.55832,39.81261,37.44735,36.24184
23.93335,25.52951,27.33016,30.31191,33.65989,35.96716,37.57553,38.96417,39.79735,40.08118,40.39858,42.17176,45.55332,48.43435,50.01526,50.01526,49.6002,48.61747,49.20344,49.35604,49.59715,50.76604,50.35708,52.5209,52.5148,50.94305,50.94305,50.57376,50.57682,50.57376,51.52597,51.3337,49.00812,46.68559,46.4628,45.32442,44.74455,43.61228,42.87981,42.55936,43.27962,45.68455,48.26344,48.75786,47.59201,48.15662,49.85961,49.81383,50.42422,52.2035,52.2035,53.42428,53.42428,52.2035,50.99493,53.42428,56.522,58.43557,58.43557,59.11921,59.7296,59.04902,55.87499,53.42428,51.62669,48.68461,46.34377,41.89404,37.51755,33.38827,30.85821,28.04431,26.2101,24.46744,22.75224,21.13166,19.53549,18.02173,17.03595,15.40621,15.66868,15.47336,15.27498,15.09492,15.08576,16.20582,17.32283,16.66667,17.13056,17.33199,17.81725,18.28725,18.75725,19.25166,19.24556,19.04413,18.8427,19.31881,18.21095,18.04309,16.33401,14.83245,14.042,13.27901,12.53128,13.12946,12.2383,11.68284,10.15077,9.48239,8.078496,8.075444,9.680767,11.80797,12.25356,12.25661,10.517,8.722456,8.417262,9.656351,9.940182,10.3583,9.247391,8.154795,6.760056,5.533175,5.920772,6.302265,6.668498,7.443692,7.8496,7.8496,8.691936,8.719404,9.59226,10.50784,10.01953,8.688885,6.689861,6.769212,6.601355,5.789538,4.785448,4.559605,3.937008,3.228957,2.572789,2.249283,2.252335,1.944088,1.64805,1.080388,0.3418177,0,0,0,0,0,0,0,0,0,0,0,0,0,0,0,0,0,0,0,0,0,0,0,0,0,0,0,0,0,0,0,0,0,0,0,0,0,0,0,0,0,0,0,0,0,0,0,0,0,0,0.6958432,1.980712,3.14045,3.14045,2.859672,1.980712,0.4516877,0,0.8850638,3.14045,4.126228,5.173045,5.923823,4.901422,3.872917,3.531099,2.93597,2.667399,2.981749,3.665385,3.47006,3.558567,3.998047,4.361228,5.456876,6.494537,7.17512,8.215834,9.27791,11.29219,12.10401,13.38583,13.82836,15.59238,16.95355,16.98712,17.06342,17.11225,16.70634,16.76738,16.36758,16.00745,16.00439,15.61375,15.26888,15.01556,15.9281,16.4042,13.90161,12.69609,11.24031,11.24031,11.66758,13.2668,14.62186,17.12751,18.90679,20.20082,21.96484,22.34633,24.6536,26.17347,28.16639,29.65879,31.7097,32.23158,32.77788,32.77788,31.76769,32.77788,33.71482,33.14106,31.03827,27.04938,24.56815,22.63322,20.36868,17.8142,16.99628,16.52323,15.72972,15.72972,14.62186,14.34719,13.59031,14.80498,14.03894,14.95147,17.12141,19.80712,21.26595,21.46127,22.94757,23.9486,23.60679,24.9649,28.19996,30.14405,30.51334,29.9823,30.89788,31.41976,30.14405,28.35561,27.51938,26.32607,24.39419,21.61387,19.17842,16.87115,15.08576,14.01453,12.52823,11.3868,10.22096,10.07142,10.07142,11.42953,12.23219,12.56791,13.45907,13.45907,12.97992,12.97992,13.90466,14.40823,15.4581,17.0329,18.71452,20.9516,21.43686,21.43991,20.77764,20.77764,20.77764,19.52939,18.92816,18.84575,18.75114,17.1855,16.20277,14.78667,14.35024,14.40823,13.45907,13.90466,13.45907,12.53433,12.50992,11.222,9.671611,8.008301,6.87603,5.789538,4.748825,4.266618,3.576879,3.576879,3.228957,3.228957,2.896295,2.572789,1.944088,1.355063,1.080388,0.814869,0.3418177,0,0,0,0,0,0,0,0,0,0,0,0,0,0,0,0,0,0,0,0,0,0,0,0,0,0,0,0,0,0,0,0,0,0,0,0,0,0,0,0,0,0,0,0,0,0,0,0.5676616,1.080388,1.944088,2.572789,3.573827,4.617591,5.316486,5.539279,5.926876,5.585058,5.582006,5.215773,4.80376,4.34902,4.455838,4.446682,3.845449,4.101813,4.703046,5.545382,5.957395,5.923823,6.207654,6.454862,6.1222,6.500641,7.275835,8.447782,9.107001,9.268754,9.766221,9.534273,8.997131,9.537325,11.24031,13.60862,15.42758,16.65446,18.07056,19.02277,20.60673,22.70646,23.37484,24.43386,26.00256,28.00464,28.98737,30.49808,31.5571,33.06781,34.55411,35.49106,35.8695,36.42495,36.04041,35.77489,36.31508,36.87359,35.8634,36.31508,37.51144,38.43313,39.18086,40.45352,41.57663,42.70585,43.26131,41.87572,41.96423,42.04969,43.65806,45.27559,47.5676,48.83416,48.91046,47.86974,45.02228,42.69365,42.13514,42.13209,42.73637,41.55832,39.18696,36.14417,33.69346
25.79198,26.89678,28.36477,31.52658,34.33742,35.39034,37.29476,38.41177,39.2419,40.08423,40.95404,41.84215,44.59195,46.87481,48.84331,47.86059,47.46688,47.61338,48.78227,49.35604,49.58493,52.2798,51.34591,51.92273,51.92273,49.77415,49.77415,49.41403,47.88805,48.83416,49.20344,48.61747,46.87481,45.15046,44.97039,44.40273,43.83507,43.61228,42.87981,42.14735,43.27962,45.11689,46.6276,47.06403,46.47806,47.0274,47.5737,48.69987,49.85351,51.62058,51.0224,51.0224,53.42428,54.01025,54.59623,57.05915,58.33486,59.64719,59.55564,60.15382,59.75706,58.43557,55.92993,54.0072,52.2035,50.99493,48.68461,41.88488,36.9743,33.83995,31.316,28.42886,27.10737,26.21315,23.60984,22.75224,20.33205,18.7603,17.28926,16.33706,15.87926,15.01862,14.35024,14.17628,15.73277,17.33199,18.48563,17.32283,17.8142,18.01257,17.80809,17.80809,18.28725,18.7603,18.7542,18.56498,18.8427,18.21095,18.21095,18.21095,16.62699,15.08576,13.72459,11.37765,12.09791,12.09485,11.222,10.66044,9.970701,9.720442,9.070377,9.070377,10.09278,11.59434,12.02771,12.02771,10.75505,8.960507,8.286028,9.525118,9.934078,10.36135,8.850637,8.61869,8.154795,6.363303,6.32668,5.920772,7.098822,7.071354,7.443692,7.8496,8.673625,9.094793,9.543429,9.540378,9.10395,9.094793,7.083562,7.156809,6.601355,5.789538,4.61454,3.851553,2.914607,2.249283,1.64805,1.355063,1.355063,1.077336,1.080388,0.3418177,0,0,0,0,0,0,0,0,0,0,0,0,0,0,0,0,0,0,0,0,0,0,0,0,0,0,0,0,0,0,0,0,0,0,0,0,0,0,0,0,0,0,0,0,0,0,0,0,0,0,0,0.1953244,0.8423365,1.86779,2.48123,1.614478,0.6348044,0,0,0.6287005,3.436489,5.505707,5.505707,6.982848,5.923823,4.849539,4.175059,4.495513,4.181163,5.221876,6.024538,6.073369,5.469084,5.563694,5.936031,6.015382,6.015382,6.01233,7.00116,7.339925,8.801806,10.3644,12.43362,12.8731,13.77037,15.13764,15.24446,16.63615,16.24245,16.29433,18.58939,16.00745,15.17121,16.00745,16.0868,17.0268,17.12751,18.07972,18.92816,15.9281,14.6768,13.14777,12.37563,13.58726,14.49979,16.99628,18.75725,20.58231,20.20082,22.95978,24.34231,26.68315,28.16639,29.201,31.1695,33.25093,32.71989,32.23158,32.72295,33.25093,33.25093,35.28353,34.20008,32.10645,28.0962,24.14088,23.13984,20.86919,18.75725,17.46628,17.47238,15.87011,16.19972,16.19972,15.87926,14.34719,14.34719,14.80498,16.46219,17.87218,20.15504,22.95978,23.95471,24.61088,25.10834,24.2538,26.13685,28.93853,30.89788,30.89788,31.73411,32.15223,32.66191,31.82872,29.60996,29.08808,27.52854,24.68718,22.85296,20.39309,18.70537,17.53342,15.08576,13.572,11.3868,11.15791,12.4733,11.95752,12.82732,14.64018,14.47842,15.4642,15.92199,14.92706,14.35024,15.32992,15.84875,16.40115,19.05329,21.92517,22.42263,23.58542,23.58237,22.42263,22.59659,21.43991,20.29238,20.14588,20.0116,19.41342,17.80504,17.25569,16.30959,16.39504,16.39504,15.3879,15.32992,14.92706,12.98297,13.42855,12.06128,10.87713,10.16908,8.154795,6.494537,5.292071,4.284929,3.576879,3.576879,3.573827,3.573827,2.899347,2.252335,1.64805,0.814869,0.5676616,0.1403894,0,0,0,0,0,0,0,0,0,0,0,0,0,0,0,0,0,0,0,0,0,0,0,0,0,0,0,0,0,0,0,0,0,0,0,0,0,0,0,0,0,0,0,0,0,0,0,0.1403894,0.814869,1.64805,2.249283,2.896295,3.921748,4.617591,5.316486,5.817006,5.215773,5.179149,4.80376,5.176097,4.941097,5.066227,4.193371,3.845449,3.741683,3.988891,3.988891,5.179149,5.383629,5.383629,5.817006,6.067265,5.743759,6.1222,6.882134,8.032717,8.694988,9.268754,9.564793,9.110053,8.997131,9.409143,10.67875,12.71745,14.06031,15.26277,17.12141,19.02277,20.60673,22.21815,23.37484,24.36672,26.91815,28.92633,30.39431,32.39639,32.53678,33.06781,34.00476,35.3293,36.24184,36.42495,35.8634,36.04041,37.51144,37.51144,36.18385,36.18385,36.58365,37.1269,37.28255,38.94586,41.17073,42.29689,42.8554,40.84417,40.92352,40.99677,42.12904,44.24098,46.02332,46.66728,46.19423,44.99481,41.97644,40.77397,40.85332,40.30092,40.38638,39.18696,37.88988,35.45443,31.74937
27.49191,28.1847,29.61607,32.42385,34.58463,35.3995,35.65586,36.75456,38.12489,39.54099,40.95404,41.84215,44.59195,45.89208,47.28377,46.29799,44.97955,45.73949,46.87481,49.02032,49.59715,50.75688,50.76604,49.77415,49.77415,49.20344,49.19734,48.25124,46.73137,46.51468,46.87481,46.30715,45.73643,45.15046,44.97039,44.40273,43.26131,43.03547,42.87981,43.11481,44.28371,44.04871,45.53806,46.53605,45.97143,45.37936,45.35189,46.42617,48.07422,50.40896,51.0224,51.0224,53.42428,55.82616,57.66648,60.15382,59.69908,58.3959,57.1385,58.9422,60.32473,57.1385,54.67253,54.6298,53.42428,52.2035,48.68461,42.96527,36.9743,33.83995,31.316,29.39633,28.04126,26.21315,24.46744,23.59763,21.95569,20.33205,18.7542,17.75621,16.80095,15.40927,14.74394,14.54557,15.92199,17.52732,19.18147,18.01257,18.01257,18.01257,17.81725,17.81725,18.27809,18.27809,17.60972,17.88439,18.8427,18.21095,18.21095,17.25874,16.94439,14.93011,12.38479,11.07551,11.222,10.79167,9.940182,9.094793,9.381676,9.543429,9.900507,10.09278,10.517,10.75505,10.99921,10.99921,10.39187,9.659403,9.522065,10.3583,10.36135,10.3583,8.835378,8.734664,9.140573,8.154795,7.208692,6.760056,7.147653,7.104926,7.874016,8.286028,8.267716,9.079534,9.079534,8.667521,8.658365,8.667521,7.877068,7.553562,6.210706,5.417201,4.251358,3.167918,1.989868,1.355063,1.077336,0.814869,0.814869,0.5676616,0.5676616,0,0,0,0,0,0,0,0,0,0,0,0,0,0,0,0,0,0,0,0,0,0,0,0,0,0,0,0,0,0,0,0,0,0,0,0,0,0,0,0,0,0,0,0,0,0,0,0,0,0,0,0,0,0.3143502,1.00409,0.7874016,0.161753,0,0,0,0.8423365,3.387658,5.453824,6.558628,7.361289,6.598303,5.173045,4.495513,5.173045,6.265641,6.647134,7.083562,7.88012,6.793628,6.854666,6.549472,6.235122,5.563694,4.886162,5.191357,5.469084,6.167979,8.340963,10.32778,11.55466,12.867,13.82836,14.39297,15.77245,16.24245,16.76738,18.18959,16.94134,15.61375,16.0868,17.01154,18.43069,18.91595,19.80712,19.80712,17.60666,16.26991,15.46725,14.6768,15.59238,16.52933,19.12043,20.49075,20.57926,21.54978,22.55387,24.46744,26.80523,28.23048,30.18373,31.1695,31.70359,31.70359,31.70359,32.18275,34.24892,34.24892,35.29573,34.20619,31.64256,27.63535,23.75938,22.75835,20.49075,18.75725,17.94543,17.12751,16.34011,16.66056,16.99628,16.65751,15.07355,14.34719,15.5466,17.28316,17.40829,19.65452,23.3077,25.68821,26.71672,25.84081,26.34133,27.75438,28.27321,29.71678,31.19392,32.14918,32.58561,33.53171,33.64768,31.28853,29.46347,26.49088,24.99237,23.11848,22.35854,20.62504,18.93121,16.40725,14.01453,12.82427,13.15083,14.49979,14.83245,14.70427,15.55576,16.01966,16.01966,17.0329,16.9505,16.85894,16.77654,17.32283,18.93121,21.12861,23.41757,23.9364,24.59257,24.59562,24.77263,23.76244,22.59659,20.9516,21.43991,20.77764,19.52939,18.45205,18.45511,17.98205,18.57413,17.979,17.42355,15.85485,15.3879,13.90771,12.97992,12.06128,12.10096,11.31356,9.537325,7.669536,6.180187,5.112006,4.284929,3.921748,3.921748,3.921748,3.228957,2.252335,1.355063,0.5676616,0.1403894,0,0,0,0,0,0,0,0,0,0,0,0,0,0,0,0,0,0,0,0,0,0,0,0,0,0,0,0,0,0,0,0,0,0,0,0,0,0,0,0,0,0,0,0,0,0,0,0,0.1403894,0.814869,1.64805,2.572789,3.573827,3.921748,4.577916,5.173045,5.551486,4.80376,4.34902,4.101813,4.809864,5.188305,5.188305,3.927852,3.582982,3.488372,3.741683,3.988891,4.440578,4.446682,4.840384,5.444668,5.688824,5.746811,6.103888,6.839406,7.480315,8.170054,8.859794,9.149729,8.929988,9.113105,9.534273,10.37356,11.82934,12.86089,14.34109,16.64836,19.02582,20.60978,21.70848,23.29244,25.22127,28.18165,30.13795,32.0973,33.17463,33.33028,33.33333,34.23976,35.47275,36.03125,36.03125,36.03125,36.88274,37.70982,37.44735,36.77898,36.04651,35.21943,35.77184,35.8634,37.96313,40.1941,41.29586,41.40572,40.92352,40.46572,40.51761,41.64683,42.73027,43.84423,44.46682,43.29488,41.97644,40.658,39.44333,38.90008,38.33547,37.32833,36.14112,35.45443,33.52866,29.79613
29.32613,29.53977,31.08405,33.77586,35.67112,35.13093,36.22963,36.76982,37.03534,37.03534,38.97943,40.70378,44.02734,45.56247,46.4628,45.55332,44.24098,45.36715,45.01312,47.07929,48.24818,49.77415,50.76604,50.76604,50.17091,49.58493,47.46383,46.51468,44.08838,44.79949,44.23488,43.65806,44.23488,44.97955,44.74455,44.74455,43.26131,43.03547,43.83812,43.12397,44.2654,43.04767,43.40475,43.33455,43.82286,44.31728,44.25014,45.30306,45.79442,48.12,49.82299,54.04078,57.0622,58.91168,59.79979,56.61356,54.0835,52.21571,52.80779,55.86279,60.33083,57.1385,55.32564,54.04078,53.42428,51.62058,49.25227,44.10059,40.21547,35.96716,31.84398,30.33632,29.92736,27.53159,25.18159,24.32399,22.6088,20.63419,18.27809,17.28621,16.57511,15.63511,16.08985,15.20784,15.46725,17.06342,18.01257,18.01257,18.70537,18.70537,18.48563,17.80809,18.27809,18.95868,18.28725,18.07972,18.37576,17.72569,18.37576,17.25874,15.8579,14.47842,12.53128,11.222,10.93206,9.940182,9.094793,8.823171,9.543429,9.71739,9.488494,10.09583,10.95343,11.17622,11.25557,10.22096,10.65434,8.850637,9.247391,10.65434,10.65434,11.65232,11.21895,10.79473,10.22096,9.683819,8.557652,8.06934,7.602393,7.550509,8.304339,8.304339,8.691936,8.667521,8.255508,7.874016,7.8496,7.874016,6.772264,6.497589,5.292071,4.45889,3.555515,2.502594,1.687725,1.355063,0.814869,0.814869,0.5676616,0.3418177,0.1403894,0,0,0,0,0,0,0,0,0,0,0,0,0,0,0,0,0,0,0,0,0,0,0,0,0,0,0,0,0,0,0,0,0,0,0,0,0,0,0,0,0,0,0,0,0,0,0,0,0,0,0,0,0,0,0,0,0,0,0,0,0.5371422,2.40188,5.057071,6.186291,7.321614,6.558628,4.764085,3.729476,5.130318,6.598303,7.388757,7.040835,7.434536,5.975707,6.024538,5.701032,4.727461,4.461942,3.558567,4.1598,4.81902,5.469084,6.470121,7.19038,9.107001,10.80083,11.71641,13.1081,15.31466,16.24245,17.23433,18.65959,17.41134,15.26888,15.73277,17.12751,18.92816,19.41036,20.28627,21.65049,18.919,18.43069,17.60666,18.07361,17.68602,18.17127,20.49075,20.97601,21.95874,22.95978,23.04523,24.46744,26.38711,27.83068,29.73204,31.7097,30.71782,30.71782,32.23158,34.24892,35.85119,34.24892,34.24892,33.71482,30.11964,29.5886,24.25685,23.24666,20.094,18.40322,16.33401,15.5466,13.89245,15.40927,16.19972,16.66056,15.87926,14.34109,15.5466,16.93829,16.64836,19.65757,23.67393,26.59159,28.5723,28.14198,27.62009,28.5723,28.5723,29.99451,31.51437,32.45437,33.99255,35.00275,34.0658,31.73411,29.32003,26.27724,24.8062,22.88653,21.36666,20.14283,18.93426,17.74706,15.9342,15.08576,14.78057,15.08576,15.88537,15.74193,16.5629,17.49374,17.49374,18.57413,17.98205,18.37576,18.37576,20.0116,22.11439,22.61491,24.26601,23.76244,24.42776,24.42776,24.59562,24.26601,23.08491,22.08692,22.7614,22.08692,20.29543,18.57413,20.29238,19.17231,20.29543,19.18757,19.17231,17.49985,15.91894,13.45907,12.98297,13.39193,13.39193,12.57401,10.26369,8.716352,7.465055,6.177135,5.487395,4.635903,4.26967,3.921748,2.899347,2.252335,1.355063,0.5676616,0,0,0,0,0,0,0,0,0,0,0,0,0,0,0,0,0,0,0,0,0,0,0,0,0,0,0,0,0,0,0,0,0,0,0,0,0,0,0,0,0,0,0,0,0,0,0,0,0,0.3418177,0.814869,1.64805,2.899347,3.921748,4.26967,4.617591,5.173045,5.383629,4.34902,4.193371,4.275774,4.645059,4.645059,4.645059,3.985839,3.927852,3.582982,3.741683,3.988891,4.226943,4.092657,4.291033,4.437527,4.934994,5.728499,5.688824,6.384667,6.973692,8.035769,8.453885,8.322652,8.127327,8.295184,8.929988,10.62687,12.10706,12.7144,14.2129,16.52017,19.84069,20.82036,21.94958,23.20698,25.09003,28.56925,30.51028,32.44522,33.5195,34.05054,34.9356,36.06482,35.79625,36.03431,36.03431,35.79625,36.33644,37.1208,36.33339,35.80541,35.3293,34.68229,35.64365,35.40866,35.94885,38.14014,39.248,39.80651,39.8706,39.96521,39.95605,41.07306,41.06086,42.20533,42.18092,42.13209,40.77092,38.75969,37.33138,36.79119,36.24794,35.30184,32.99152,32.27431,31.03522,27.80321
30.02808,31.09321,32.42691,33.51035,34.59378,34.59378,35.43612,36.51651,35.3995,34.57547,35.93359,38.16761,41.61326,43.65806,44.24098,44.79949,44.44851,44.44851,44.07923,45.23592,46.38039,47.29903,47.67137,48.61747,49.01422,48.42825,45.36715,43.86864,42.39455,42.74858,42.17176,42.17176,43.09345,43.83812,44.18299,45.15046,45.15656,44.9826,44.25014,43.52682,43.27962,42.58072,41.92761,40.79839,41.71397,42.19923,43.19111,43.11481,45.2939,47.49741,50.99493,55.23409,58.60954,58.60038,58.60038,53.56772,49.20649,49.20649,51.62974,55.2646,59.59226,57.73058,55.92993,54.67253,54.04688,52.24013,49.26448,46.96026,42.44949,37.06281,33.91931,32.38418,30.85821,28.45022,26.07581,24.68718,22.95978,20.48465,18.57413,17.53952,17.28621,17.03595,16.80095,16.57206,16.33706,16.59342,17.53342,18.22011,18.93426,19.41647,19.18147,18.95868,18.28725,18.95868,18.95868,18.76335,17.88439,17.25874,17.4266,16.9505,15.39095,14.01453,13.27901,12.39394,10.50784,9.100897,8.28908,8.563755,9.900507,9.070377,9.070377,10.09583,11.3807,11.62486,11.25557,10.07447,9.940182,9.143624,9.045962,10.40408,11.38375,12.52823,12.67472,11.80187,10.79473,10.3583,9.683819,9.045962,8.469145,8.890313,8.820118,7.904535,7.874016,7.855704,7.443692,7.08051,7.083562,6.372459,5.737655,4.919734,4.45889,3.555515,2.557529,1.879997,1.367271,1.355063,0.814869,0.5676616,0.1403894,0,0,0,0,0,0,0,0,0,0,0,0,0,0,0,0,0,0,0,0,0,0,0,0,0,0,0,0,0,0,0,0,0,0,0,0,0,0,0,0,0,0,0,0,0,0,0,0,0,0,0,0,0,0,0,0,0,0,0,0,0,0,0.5066227,1.782335,3.647073,5.047915,5.417201,5.417201,4.355124,3.991943,4.70915,6.567784,7.361289,6.598303,5.173045,3.83019,3.195385,3.26558,3.323567,3.409022,3.47006,4.168956,5.194409,6.549472,5.780382,5.783434,6.854666,9.222975,10.48343,12.21388,15.24446,17.11225,18.12244,17.78063,17.41134,15.73277,16.19972,17.12751,18.07361,18.56498,21.27205,22.63017,21.65354,20.28627,20.28627,20.77153,20.77458,21.75731,22.34633,23.33211,23.84179,24.34231,23.95471,23.95471,25.46847,26.89678,28.76152,30.72087,30.18068,30.71171,33.25093,36.24794,36.37917,33.25093,31.70359,31.1695,29.59165,28.55094,26.09107,23.75938,20.58231,18.40933,15.07355,13.90161,12.99213,13.70933,14.16102,15.40927,15.40927,15.5466,15.25972,16.65751,17.87524,20.48465,23.17952,27.40341,29.93042,29.49704,28.95685,29.39633,31.316,32.31093,32.84197,32.38418,33.92236,34.4534,32.99152,31.58762,28.78288,26.14295,24.61698,22.67289,20.39614,18.45511,18.45511,18.45511,17.74706,16.87115,15.85485,15.55271,15.74193,16.67887,17.0268,17.979,18.45205,19.52939,19.52939,20.01465,21.76341,22.92926,24.43386,24.11341,24.11341,24.26295,24.93133,24.42776,24.59562,24.0951,23.58542,23.76549,24.68107,24.16529,22.77056,20.94854,21.59556,21.11335,21.59861,20.45108,19.31881,18.22621,16.01966,14.47842,13.90466,14.78667,14.30141,12.98297,11.01141,9.241286,7.898431,7.074406,6.180187,5.108954,4.26967,3.573827,2.572789,1.944088,1.355063,0.814869,0.1403894,0,0,0,0,0,0,0,0,0,0,0,0,0,0,0,0,0,0,0,0,0,0,0,0,0,0,0,0,0,0,0,0,0,0,0,0,0,0,0,0,0,0,0,0,0,0,0,0.1403894,0.5676616,0.814869,1.64805,2.881035,3.561619,3.900384,4.223891,4.703046,4.654215,4.101813,3.985839,4.388696,4.388696,4.037722,3.692852,4.037722,3.985839,3.299152,3.488372,3.741683,3.863761,3.59519,3.738631,3.985839,4.883111,5.249344,5.545382,6.204602,6.84551,7.642068,8.035769,7.886223,7.709211,7.919795,8.740767,10.41323,11.92395,13.25154,14.79583,17.29537,19.67894,21.45211,22.94146,24.31179,25.97815,28.39834,30.85515,32.23769,33.32113,34.70366,35.4758,36.4219,36.56534,35.59788,35.03937,35.46664,36.24184,35.68638,35.4819,35.52463,34.79522,35.0882,36.18995,35.94275,34.96917,35.50937,36.60807,37.70066,37.72508,38.83599,38.82683,39.9469,39.92553,40.47488,40.43521,40.94183,39.54709,37.50229,34.79522,34.79522,34.24892,32.63444,30.33632,29.5886,27.59568,26.55497
30.31496,32.491,33.89489,34.10853,33.80028,34.88067,35.20112,35.44223,33.77586,34.30996,36.22658,36.22658,40.15748,41.26839,42.74553,42.63871,43.20027,42.33962,42.34267,42.60209,44.0365,44.9002,45.58078,45.95312,45.3641,44.79949,44.23488,42.17176,41.61326,41.61021,40.71293,41.61326,41.96423,43.83507,45.15656,45.15046,46.13013,47.52182,45.80053,45.66014,44.418,42.72111,39.91333,39.7882,40.1117,40.59085,40.50845,41.00287,43.62144,46.38039,51.01324,53.39071,57.66648,57.39181,56.10084,51.71214,48.59916,48.59916,51.03461,54.0835,57.80993,58.9422,57.11408,55.27681,54.04688,52.24013,49.26448,47.52487,43.008,39.74852,36.56534,33.9895,31.92639,29.93042,27.53159,25.57224,23.80516,21.26595,18.57413,18.27809,17.53952,17.28926,17.75621,18.22621,17.98816,17.74095,17.49985,19.16926,19.16926,20.14283,19.89257,20.15199,18.27809,18.76335,18.75725,17.60972,17.41744,16.31569,15.85485,16.47745,15.55881,14.17628,12.82732,11.96057,10.65434,9.799792,8.417262,7.736678,9.070377,8.652262,9.680767,11.15791,12.02771,11.62486,11.25557,10.93206,10.65434,10.40408,9.384728,10.72758,12.25356,12.82732,12.53433,12.2383,11.80187,10.93206,10.21486,9.671611,9.457974,8.96356,8.890313,7.507782,7.477263,7.06525,6.68681,5.945187,5.990966,5.072331,4.202527,3.744735,3.552463,2.704022,2.102789,1.681621,1.110908,0.814869,0.3418177,0,0,0,0,0,0,0,0,0,0,0,0,0,0,0,0,0,0,0,0,0,0,0,0,0,0,0,0,0,0,0,0,0,0,0,0,0,0,0,0,0,0,0,0,0,0,0,0,0,0,0,0,0,0,0,0,0,0,0,0,0,0,0,0,0.2594152,1.205518,2.969542,4.321553,4.321553,4.321553,5.020448,5.020448,4.675578,5.426357,6.186291,5.453824,4.083501,2.813892,1.904413,1.675517,2.023439,3.601294,4.007203,4.727461,5.469084,5.481292,5.469084,6.549472,6.937069,8.456937,9.27791,11.7805,15.65647,17.52426,18.54056,17.78063,16.54764,15.73277,16.66056,17.60666,18.56498,19.03803,21.75426,23.13984,23.57322,22.63322,23.06049,24.51321,25.01373,26.03003,25.65464,26.17347,26.68315,24.84588,25.3586,24.85503,25.86523,24.9649,26.28029,28.67607,28.68217,29.72899,33.24178,36.77592,36.39443,33.24178,30.18068,29.65574,29.06366,27.58042,27.58042,25.14802,21.47653,18.75725,15.87926,13.44992,12.99823,12.99213,12.99823,14.95758,15.40927,16.00439,15.72667,17.40829,18.70231,21.32393,24.04932,27.31795,30.25087,29.79613,29.28035,30.25087,32.23158,33.25093,33.79418,32.31093,33.83995,33.38522,30.97113,30.53775,27.75438,24.75432,23.10627,22.47452,20.16114,19.17842,17.74706,18.93121,18.01257,18.28725,16.77959,17.10309,16.67887,16.5629,16.9505,17.88744,18.92816,21.13471,22.9262,22.25172,24.77263,24.59257,25.44406,25.94763,25.95068,25.44406,25.44406,24.42776,24.59257,25.2762,24.97406,26.2162,25.9049,25.9049,25.40133,23.46029,23.68003,23.17341,20.77764,20.13062,18.36965,17.27706,16.57206,15.00641,15.32992,15.73277,14.74699,13.39193,11.74693,9.845572,8.423366,7.898431,6.491485,5.188305,4.202527,2.945126,2.572789,1.944088,1.355063,0.814869,0.1403894,0,0,0,0,0,0,0,0,0,0,0,0,0,0,0,0,0,0,0,0,0,0,0,0,0,0,0,0,0,0,0,0,0,0,0,0,0,0,0,0,0,0,0,0,0,0,0,0.3418177,0.5676616,0.814869,1.63279,2.469023,2.719282,3.125191,3.729476,3.738631,3.866813,3.9248,3.384606,3.442593,3.442593,2.768113,3.054996,3.729476,3.341879,3.009217,2.960386,2.819996,3.189281,3.427333,3.396814,3.866813,4.580968,4.703046,5.316486,5.316486,6.073369,6.695965,7.086614,7.233108,7.639016,8.035769,9.113105,10.37356,12.35427,12.81511,15.05829,17.38387,19.78575,21.24458,23.48471,25.45627,27.19893,29.5947,31.48691,32.82061,33.90405,35.23775,35.3232,35.67418,35.67418,35.19502,34.67009,34.64262,35.46664,35.46664,34.78911,35.2408,35.14924,35.0882,35.77489,34.9234,33.38827,33.92846,33.9132,34.41983,35.46664,37.11164,38.26222,39.37618,39.3304,38.08521,37.98145,39.18696,36.55008,34.41983,32.98846,31.7097,31.91418,29.36886,27.59568,26.32302,25.56308,24.54373
32.62223,33.16853,34.23366,33.90099,33.57138,34.11463,34.64872,33.80028,33.50729,34.04444,35.97632,36.22658,37.31002,38.42093,40.39858,39.79735,40.05982,39.23274,40.07203,39.79735,41.18904,42.33962,42.96527,41.50339,40.95404,41.83605,42.74858,41.61021,40.48709,40.49014,41.0517,41.96423,42.33046,43.27657,43.61228,44.59195,46.5452,48.55338,48.43435,46.70085,43.39254,41.70176,39.45248,38.24391,39.12897,38.99469,39.47385,39.9591,42.6143,45.87377,49.81383,51.60532,54.59623,57.05915,55.4996,52.38357,49.2889,48.62052,51.03461,53.47311,55.94213,60.15382,57.72142,56.45791,55.87194,52.24013,49.83825,46.34377,44.6652,41.38436,38.21034,35.62534,33.53171,30.97418,28.96905,27.53159,25.68821,23.11237,20.63419,19.05939,19.53549,18.7542,18.75725,20.0177,19.72777,19.4592,17.98816,18.93731,19.17842,19.65452,20.14283,20.39309,18.95868,18.08277,16.77959,15.7053,15.23836,14.78667,14.32583,14.47842,14.63102,14.16712,12.24135,10.93206,10.22706,9.805897,8.417262,7.742782,7.904535,9.070377,10.09583,11.59739,11.80797,12.05518,11.68284,11.21895,10.94732,10.8344,10.30031,11.15791,12.26271,12.38479,12.09485,12.2383,12.38479,11.51193,10.93206,9.799792,9.555637,9.045962,8.557652,7.147653,6.287005,5.90246,5.536227,4.873955,4.358176,3.613502,3.067204,2.557529,2.38662,1.928829,1.394738,1.022401,0.3692852,0,0,0,0,0,0,0,0,0,0,0,0,0,0,0,0,0,0,0,0,0,0,0,0,0,0,0,0,0,0,0,0,0,0,0,0,0,0,0,0,0,0,0,0,0,0,0,0,0,0,0,0,0,0,0,0,0,0,0,0,0,0,0,0,0,0,0,0.6805835,1.751816,2.639932,3.619606,4.294086,5.383629,5.762071,5.020448,4.675578,5.057071,4.355124,3.695904,2.450711,1.327596,1.107856,1.675517,3.195385,4.233047,4.309345,5.03876,4.742721,5.469084,6.549472,7.648172,8.041873,10.0531,12.15284,15.20173,16.59037,17.57615,16.82842,16.08375,15.73277,16.66056,17.60666,18.56498,19.88647,22.63322,24.07068,25.51425,24.07068,24.51627,25.95984,27.97717,29.00568,29.06366,28.61198,27.6384,25.77977,26.28029,24.83977,24.83977,24.33315,25.26704,27.6384,29.66184,30.71782,33.78807,36.39443,35.85119,32.70768,30.64152,28.60282,27.58042,26.616,26.616,24.25685,22.34633,19.60264,16.99628,13.70933,13.2668,13.2668,13.2668,14.49368,14.62186,16.00439,17.28316,18.55887,19.51413,20.83562,24.46744,27.20808,29.13996,29.65879,30.64152,32.18275,33.18074,34.20008,34.20008,32.72295,33.78502,32.84197,31.38314,30.01892,27.22944,24.60782,22.95978,22.2914,20.42056,19.42257,17.74706,17.53342,17.12751,17.41744,17.25874,17.57004,17.28621,17.0268,17.42355,18.37576,20.50601,22.7614,24.59257,25.27315,26.50003,26.30165,26.63737,27.15009,27.15009,27.33626,26.11549,25.60886,25.2762,26.71672,27.44308,28.19996,28.45633,27.9436,27.41561,26.1399,25.11445,23.38705,20.29848,19.00446,17.88439,17.27706,17.14277,16.4805,16.30959,15.27193,14.76225,13.83446,12.13148,10.51395,9.009339,8.301288,6.818043,5.560642,4.425319,3.167918,2.615516,1.944088,1.64805,0.814869,0.3418177,0,0,0,0,0,0,0,0,0,0,0,0,0,0,0,0,0,0,0,0,0,0,0,0,0,0,0,0,0,0,0,0,0,0,0,0,0,0,0,0,0,0,0,0,0,0,0.1403894,0.5676616,0.5676616,1.077336,1.63279,2.090582,2.319478,2.52701,3.064152,3.247268,3.402918,3.640969,3.070256,2.121101,2.121101,2.130257,2.74675,3.384606,3.341879,2.71623,2.685711,2.575841,2.850516,2.920711,3.247268,3.738631,3.94006,4.291033,4.651163,4.651163,5.014344,5.215773,5.957395,7.086614,8.170054,8.292132,8.997131,9.955441,11.48141,12.80901,15.05829,17.14887,19.7766,21.73289,23.73192,26.01782,28.07483,30.41873,32.00879,33.85522,34.94171,35.14619,34.93255,34.59684,34.67009,34.67009,34.67009,34.67009,35.13703,35.04242,34.78911,35.4819,35.4758,36.04651,35.8634,34.9234,33.87963,33.38827,32.82976,32.1858,33.18074,34.79827,35.96716,37.603,37.51755,36.33644,35.68638,35.04242,34.21534,32.1034,30.64152,29.36886,28.83477,27.59568,24.8062,23.53964,22.27309,22.04419
34.72807,35.26826,34.95391,34.03223,33.36385,33.89489,34.43203,33.57138,34.11463,33.80028,34.04444,35.67112,35.93359,36.21742,38.12794,37.57553,38.11878,37.85937,38.68339,38.41177,38.68034,40.35586,40.08423,40.39858,38.97943,39.82787,41.26839,41.0517,39.93774,39.93774,40.49014,41.41183,41.75365,41.20124,42.48001,42.48001,45.39156,47.9552,48.43435,45.65403,42.38235,40.70378,39.02826,37.79222,38.65898,38.56437,40.01709,40.51761,41.55527,44.19825,48.69072,50.43338,53.97668,56.41824,56.18934,53.62266,50.5524,49.88403,50.46084,53.47311,55.94213,59.69908,59.55564,57.72142,55.87194,52.82305,50.41507,46.90838,45.80053,42.51053,38.76884,36.16859,35.62534,32.99152,30.55912,29.60996,28.66386,24.9649,24.11341,22.4501,20.329,19.53549,20.63419,20.33205,18.7542,18.49478,17.50595,18.22011,17.98205,17.74706,19.41647,19.65757,18.95868,18.07972,15.7053,14.63102,13.59641,13.15388,12.82732,13.42855,13.572,13.12641,12.24135,10.36135,10.07447,8.688885,7.870964,7.208692,7.342978,8.475248,9.900507,10.75505,11.00226,12.31765,11.50583,10.65434,10.40408,10.8344,10.30031,10.72758,11.80797,12.09791,12.2383,12.83037,14.09388,13.00739,11.96057,10.3583,10.22096,8.734664,8.215834,6.805835,5.939083,5.14863,4.794604,4.147592,3.064152,2.734542,2.554477,2.105841,1.922725,1.477141,0.5249344,0.2014283,0,0,0,0,0,0,0,0,0,0,0,0,0,0,0,0,0,0,0,0,0,0,0,0,0,0,0,0,0,0,0,0,0,0,0,0,0,0,0,0,0,0,0,0,0,0,0,0,0,0,0,0,0,0,0,0,0,0,0,0,0,0,0,0,0,0,0,0,0.4211683,1.422206,2.008179,2.609412,3.25032,4.281878,5.383629,4.654215,5.020448,5.020448,4.327657,4.327657,3.015321,2.127205,2.169932,1.614478,2.536165,3.83019,3.872917,4.590124,4.01941,5.408045,6.470121,6.854666,7.648172,9.222975,10.84966,12.98602,13.94738,16.24245,17.23433,16.94134,15.73277,16.66056,17.60666,18.07361,20.77458,24.07068,25.51425,27.44308,25.95984,26.9273,27.44308,28.93853,30.98334,31.03827,29.59165,28.61198,26.68315,26.68315,25.26704,25.26704,23.84179,25.26704,28.61198,30.11964,31.7097,33.24178,34.79522,34.24892,32.18275,29.14301,27.12568,26.61295,26.17347,25.65464,23.33211,21.47653,19.60264,16.99628,14.81414,13.2668,13.2668,13.70933,14.95147,14.62186,14.81414,17.60361,18.89764,19.84984,19.85595,22.96588,27.12568,28.55094,31.03827,32.59782,33.62632,32.59476,33.62022,33.62022,32.10645,33.18074,32.23158,31.316,29.39633,26.60074,25.32808,23.10322,21.61997,20.99738,20.42056,18.45511,17.33199,16.47745,16.77959,17.25874,17.57004,17.88439,18.09498,18.45205,20.0116,21.61692,23.25581,26.28945,27.02497,28.27626,26.81133,26.81133,27.15009,27.66282,28.04431,28.05042,27.75743,26.50003,28.48685,28.72795,29.5062,30.29054,29.50925,29.78392,27.1623,26.64958,24.11951,21.47958,19.48056,19.00446,18.36965,17.744,17.0329,16.85589,15.85485,15.23225,13.83446,12.53128,12.10096,10.03479,8.832326,7.391809,6.314472,5.191357,3.40597,2.8261,1.989868,1.64805,1.077336,0.5676616,0,0,0,0,0,0,0,0,0,0,0,0,0,0,0,0,0,0,0,0,0,0,0,0,0,0,0,0,0,0,0,0,0,0,0,0,0,0,0,0,0,0,0,0,0,0,0.1403894,0.814869,0.814869,1.077336,1.64805,2.090582,2.722334,2.725386,2.920711,3.0611,3.067204,3.341879,2.450711,1.510712,1.22383,1.831167,3.070256,3.070256,2.740646,2.426296,2.685711,2.316426,2.639932,2.212659,2.584997,3.082464,3.424281,3.943112,4.291033,4.291033,4.651163,4.294086,5.176097,6.528109,7.642068,7.77025,8.035769,9.534273,11.48141,12.80901,15.29634,17.38387,18.80913,21.24153,23.21919,25.9751,28.75237,30.65067,31.7158,34.05664,35.3232,35.3232,35.04242,34.59684,34.13294,34.13294,34.67009,34.67009,35.20112,35.59788,35.3232,36.24184,36.34255,37.1269,36.96209,35.45749,33.87963,32.85113,32.82976,31.7097,32.11256,33.62022,34.79827,34.71281,34.0597,34.05664,33.42489,32.07593,31.92639,29.79613,29.59165,27.59568,26.06665,25.30367,23.53964,21.50705,19.76744,18.80608
36.98346,36.98346,36.59281,34.72807,34.03223,33.70262,34.23366,34.78606,34.43203,33.26009,33.51035,33.77281,34.03223,34.29775,34.58463,34.86846,35.42392,35.42392,36.21742,36.75456,37.56943,37.85937,38.12794,38.42398,37.88073,39.27852,40.70378,41.0517,39.93774,40.84417,41.75365,42.14429,41.57053,40.07508,40.45657,40.79839,43.27657,44.25624,44.6652,43.52682,40.30703,38.63151,38.48502,37.37411,37.78001,38.67729,39.5593,40.01709,40.51456,42.55326,44.72013,48.69072,52.78337,55.16389,56.41824,57.41623,54.3185,51.12617,50.46084,52.89019,55.35006,56.54642,58.4081,58.93609,55.82616,54.01025,51.57175,49.26448,47.53708,43.06903,39.3243,37.72813,37.73424,36.16249,33.64768,31.73411,30.7636,28.78288,28.26711,25.9873,23.75328,22.4501,21.95569,19.83459,18.76335,17.75926,16.78874,16.34011,16.12342,16.59647,18.22316,18.48563,17.60972,16.9505,15.23836,13.59641,13.01654,12.13148,11.26778,11.3868,11.3868,11.50583,10.65434,9.683819,8.83843,7.513886,6.833303,6.940121,7.08051,7.605444,8.563755,8.960507,9.094793,10.50784,11.35628,10.65434,10.09888,10.40408,10.40408,10.40408,11.07856,11.95446,13.19966,13.83141,14.29225,13.65135,12.56791,10.50784,9.522065,8.441677,7.41012,6.488433,5.609473,4.413111,3.753891,3.167918,2.646035,1.986816,1.797595,1.684673,1.211622,0.6683757,0.106818,0,0,0,0,0,0,0,0,0,0,0,0,0,0,0,0,0,0,0,0,0,0,0,0,0,0,0,0,0,0,0,0,0,0,0,0,0,0,0,0,0,0,0,0,0,0,0,0.08850638,0,0.0274675,0,0,0,0,0,0,0,0,0,0,0,0,0,0,0,0,0,0,0,0,1.11396,1.687725,1.989868,2.5911,2.920711,3.59519,4.294086,5.380578,6.103888,5.383629,4.654215,3.308307,2.722334,2.768113,2.169932,2.48123,2.215711,2.859672,3.534151,4.236098,5.264604,5.646097,6.402979,6.470121,7.993042,9.222975,10.48953,12.65641,14.90569,15.43673,16.00745,16.07764,16.19972,17.12751,18.43069,21.14997,24.51321,26.93646,27.89172,27.89172,27.89172,28.40139,28.93853,30.46145,31.53879,31.56626,29.59165,27.12568,25.65464,25.65464,24.75432,24.75432,26.17347,28.61198,30.11964,30.64152,32.18885,32.70768,31.7097,30.64152,28.61198,27.58652,25.65464,24.75432,23.33211,21.47653,20.0879,19.60264,17.8142,16.06238,14.81719,14.03284,14.95147,15.87316,15.40316,14.16102,16.66056,18.41238,19.24556,20.07874,21.84276,25.07782,28.47769,30.98334,33.60801,33.08307,32.01184,32.01184,32.5673,32.06678,33.12885,32.63444,30.18373,27.31795,26.87847,26.49393,23.81127,20.96686,20.33205,20.71049,18.70231,16.8681,16.47134,16.31569,16.16615,17.10004,17.4205,18.8427,20.29238,21.27815,22.7614,24.42776,26.82048,28.05042,28.05042,27.53464,27.321,28.37392,28.37392,29.31697,29.54282,29.24373,29.24983,30.56522,30.56522,30.82158,31.90197,31.65782,30.59269,27.9497,27.41866,25.86828,23.67393,21.11335,21.11335,20.61283,18.22621,17.0268,17.49374,16.9505,15.32992,14.32583,13.84972,12.96771,10.76116,9.10395,7.962522,6.894341,5.417201,4.071293,3.067204,2.191296,1.64805,1.077336,0.5676616,0,0,0,0,0,0,0,0,0,0,0,0,0,0,0,0,0,0,0,0,0,0,0,0,0,0,0,0,0,0,0,0,0,0,0,0,0,0,0,0,0,0,0,0,0,0,0,0.5676616,1.077336,1.355063,1.64805,2.212659,2.719282,2.584997,2.404932,2.63688,2.73149,2.356101,1.831167,1.232985,0.9674663,1.541232,2.450711,2.453763,2.130257,2.453763,2.71623,2.685711,2.575841,2.099738,2.215711,2.407984,2.920711,3.39071,3.524995,3.524995,4.092657,3.866813,4.580968,5.957395,6.695965,7.233108,7.486419,8.929988,10.41018,12.35427,14.84466,16.91693,18.54666,20.96075,22.94757,25.64854,28.39529,30.32717,31.7158,33.52255,34.78606,35.3232,34.93255,35.04242,34.67009,34.67009,35.21333,35.21333,35.76268,36.68132,36.96209,37.1208,37.44125,38.073,37.96313,36.48599,34.9234,33.92846,33.38827,32.27431,31.64561,32.00879,32.56119,31.91418,31.91418,31.37399,30.62931,30.33632,29.45431,28.76152,27.27828,25.56308,24.53458,24.03711,23.03302,19.76744,17.274,15.11018
37.23982,38.79326,38.33852,36.59281,35.26521,34.03223,33.69957,34.23366,33.89489,33.57138,33.26009,32.69548,32.15528,31.89587,32.18885,32.491,32.26515,32.79924,34.10242,34.10242,35.12177,35.93054,36.20826,36.47684,36.77592,38.16761,38.73528,39.59287,40.84111,43.27351,43.61228,43.04157,41.01813,38.41177,38.78411,38.56437,40.07508,40.63969,41.57969,40.07508,38.79021,36.75761,37.52975,35.49411,35.49411,37.23982,38.10352,38.56437,38.44839,41.00287,43.11481,45.30306,49.27364,52.78337,53.33883,55.23409,56.8272,52.9848,51.70909,51.03461,52.89019,54.0835,55.94213,57.21785,58.26161,54.59623,50.42422,50.42422,48.64494,44.72013,40.92962,39.87975,40.43216,38.35683,35.82982,33.87048,33.87048,32.37502,31.73411,29.71678,27.37594,24.9649,23.59763,20.63419,18.27809,15.87316,14.95147,14.55472,15.46725,16.59647,17.06342,16.20582,16.01355,15.39095,13.72459,12.13148,11.08161,10.14466,9.805897,8.890313,9.384728,9.457974,8.61869,8.154795,7.816029,7.022523,7.114082,7.2209,6.34194,6.439602,6.833303,7.227004,7.114082,8.83843,10.3583,10.22096,9.674663,9.555637,9.985961,10.09888,10.93206,11.68589,13.38583,13.59336,14.03894,13.38583,12.31765,11.25557,10.21486,9.10395,8.014405,6.177135,4.461942,3.708112,3.112983,2.890191,2.099738,1.583959,1.394738,0.6958432,0.326558,0,0,0,0,0,0,0,0,0,0,0,0,0,0,0,0,0,0,0,0,0,0,0,0,0,0,0,0,0,0,0,0,0,0,0,0,0,0,0,0,0,0,0,0,0,0,0,0,0,0.06409083,0.0274675,0.161753,0.009155832,0,0,0,0,0,0,0,0,0,0,0,0,0,0,0,0,0,0,0,0.1831166,0.8484405,1.391686,2.5911,2.920711,3.589086,4.284929,4.284929,5.725447,5.374474,4.654215,3.976683,3.344931,2.765061,2.447659,2.450711,1.327596,2.48123,3.14045,3.195385,4.849539,4.532137,4.953305,5.697979,6.793628,8.395898,8.872002,11.40512,12.37868,13.71544,14.62797,16.00439,16.0868,17.87524,18.3666,22.50504,24.94049,27.37594,27.89172,28.88665,28.36782,30.42178,30.96197,31.48996,33.60191,33.09528,31.56626,27.57431,25.65464,24.75432,24.75432,25.65464,27.58042,28.54483,29.5886,31.11457,31.12067,30.63847,30.64152,29.5886,28.54483,26.54276,24.6475,22.33108,21.47653,19.24556,19.24556,18.75725,18.64433,18.64433,16.86199,15.26888,15.73277,16.65751,15.73277,14.49979,16.52628,17.8142,17.8142,20.38699,21.27205,23.99438,26.93646,29.41158,30.96197,32.00574,30.96197,31.99658,33.60191,33.60801,33.61716,33.09528,30.57438,27.63535,26.28029,26.3688,23.67393,20.77153,20.63419,20.71049,17.98205,16.8681,16.47134,15.71141,15.08576,16.47745,16.94439,18.36965,20.94854,21.92517,23.93335,24.92523,27.33626,27.33626,27.84289,28.57535,28.36477,30.36684,30.06165,29.54282,31.09015,31.35567,32.43301,32.98236,32.97931,32.69242,33.26009,33.02509,32.5032,29.78392,28.74321,27.17146,24.89471,22.25783,21.59556,21.11335,19.81322,18.09192,18.69926,17.62498,15.4581,13.95959,13.90771,13.00128,11.222,9.491546,8.661417,7.156809,5.826161,4.45889,2.877983,2.414088,1.736556,1.077336,0.814869,0.1403894,0,0,0,0,0,0,0,0,0,0,0,0,0,0,0,0,0,0,0,0,0,0,0,0,0,0,0,0,0,0,0,0,0,0,0,0,0,0,0,0,0,0,0,0,0,0,0.814869,1.080388,1.355063,1.355063,1.63279,2.090582,1.965452,1.706037,1.580907,2.099738,2.255387,1.779283,1.242141,0.711103,0.9674663,1.831167,1.525972,1.525972,1.822011,2.450711,2.426296,2.356101,2.18214,2.005127,1.901361,2.002075,2.63688,2.407984,2.63688,3.18623,2.960386,3.640969,4.80376,5.585058,6.143563,7.312458,8.322652,9.561741,11.48141,14.37771,16.44082,18.54666,21.14082,22.79497,25.45321,28.01379,30.11964,30.84905,32.98846,33.32418,34.23366,33.69957,34.93255,35.13398,35.76268,36.30593,35.76268,36.27541,37.78001,38.073,37.98145,37.9906,38.43313,38.38125,37.96313,35.94275,35.45749,34.41067,33.38827,31.1695,31.03827,30.96197,30.32717,29.71068,29.0484,28.23048,28.05652,27.20198,26.26198,25.28841,23.03302,22.77971,22.27614,22.04724,18.79998,15.56491,12.29018
37.13911,38.65287,40.32228,39.44333,37.12995,34.94781,34.58463,35.12177,34.78606,33.57138,32.43301,32.16444,31.61509,30.58353,29.61607,29.40243,29.94262,30.97723,32.79924,33.01898,34.03223,34.83794,35.39034,35.65586,36.76982,36.76982,38.16761,39.02826,42.32741,44.17994,44.02429,43.43832,40.79534,38.2317,37.12385,36.5806,37.46566,38.96722,38.96722,37.46566,36.36697,35.82067,34.72807,34.19093,33.11359,34.40762,36.14112,36.59892,38.01501,39.47385,41.55527,43.67942,46.43228,49.27364,50.38454,52.77422,55.23409,55.49655,52.9848,48.62052,49.20649,49.75279,53.47311,55.94213,61.01752,56.41214,52.16993,51.01324,49.24312,47.52182,44.19825,42.61735,42.13209,38.99469,37.47482,36.46768,36.46157,35.90002,34.27028,32.66191,29.71678,27.22639,24.9649,21.94653,18.27809,15.87011,14.29225,14.09693,15.02167,16.12342,15.46725,14.63712,13.87109,12.68998,11.26778,10.22096,9.714338,9.232131,8.820118,7.947262,8.002197,7.602393,7.208692,6.805835,6.488433,7.013368,7.019471,6.631875,5.786486,5.417201,4.968565,5.347006,6.177135,7.41012,8.835378,9.247391,9.247391,8.734664,8.734664,8.847586,9.656351,11.43563,12.69609,12.91583,12.25661,12.25661,11.62486,10.99921,10.39187,8.823171,7.223952,5.786486,3.729476,2.719282,1.937984,1.788439,1.110908,0.8484405,0.2380516,0,0,0,0,0,0,0,0,0,0,0,0,0,0,0,0,0,0,0,0,0,0,0,0,0,0,0,0,0,0,0,0,0,0,0,0,0,0,0,0,0,0,0,0,0,0,0,0,0,0,0,0,0,0.009155832,0,0,0,0,0,0,0,0,0,0,0,0,0,0,0,0,0,0,0,0,0,0.1831166,1.11396,2.5911,3.592138,4.251358,3.589086,3.25032,3.946164,4.654215,5.020448,4.321553,3.354087,3.058048,2.719282,2.40188,1.828115,1.568699,2.172984,2.813892,3.479216,3.83019,4.233047,5.328694,6.406031,7.584081,8.456937,9.793689,10.72148,12.0033,13.71544,15.43673,16.36758,18.18959,19.13264,22.42874,24.37893,27.33932,28.36782,28.37392,29.38107,30.95587,32.00574,32.55204,33.60801,32.5673,31.03827,27.57431,24.75432,24.25685,24.25685,26.09107,27.50107,27.50107,28.55094,29.06366,29.06366,29.06366,29.06366,29.53061,28.4899,26.46951,24.56815,21.33614,19.12043,17.46933,17.46933,17.46628,19.12043,19.12043,18.64433,16.52323,16.19972,16.65751,16.52628,16.40115,16.40115,16.86199,17.69212,20.28627,21.14997,22.9903,25.39523,27.85204,28.36782,28.88665,30.42483,31.99658,34.10853,34.63956,33.08307,32.01184,29.9823,27.58652,26.67704,25.34334,22.66679,21.13166,20.63419,18.96478,17.49985,16.40725,15.55271,14.78667,14.63712,15.55271,16.47134,17.88439,20.45718,22.59659,24.0951,25.09003,26.11549,26.11549,27.84289,29.61607,30.90704,31.89587,31.61509,31.09015,31.87756,33.51035,34.64872,34.64872,34.34352,34.34963,34.63956,34.98749,34.43203,31.65782,29.78392,28.46243,25.63633,22.96588,21.59556,21.59861,19.81322,19.31575,18.71452,18.22621,16.0868,14.09083,13.12641,12.67167,11.3044,9.940182,8.670573,7.443692,6.055057,4.556552,3.210645,2.557529,1.879997,1.095648,0.814869,0.5676616,0.1403894,0,0,0,0,0,0,0,0,0,0,0,0,0,0,0,0,0,0,0,0,0,0,0,0,0,0,0,0,0,0,0,0,0,0,0,0,0,0,0,0,0,0,0,0,0,0.5676616,0.814869,1.080388,0.814869,1.037661,1.321492,1.373375,1.132271,1.010193,1.086492,1.361167,1.41305,1.205518,0.7141549,0.711103,0.711103,0.7019472,0.7019472,1.220778,1.525972,1.529024,1.800647,1.999023,1.876946,1.791491,1.294024,1.580907,1.580907,2.005127,2.32253,2.099738,2.49649,3.305255,4.440578,5.383629,6.735641,7.526094,8.74382,10.83745,13.48044,15.52219,17.59141,20.1703,22.42874,24.94049,26.99139,28.54483,29.79003,31.17256,32.00574,32.98846,33.16853,34.23366,35.46664,36.22963,36.27235,36.83391,37.23982,38.61625,39.33956,38.82073,38.55216,38.43008,39.18086,37.8319,36.87054,36.4158,35.46054,33.92846,32.29873,31.1695,29.9823,30.51639,29.2712,27.34847,26.50919,26.34133,25.45321,23.7777,22.2914,20.79289,20.53958,20.79595,20.31679,17.09394,13.8955,10.37356
37.54807,38.65287,39.20527,39.35787,36.97736,37.13911,36.36697,36.04956,35.32015,33.26009,31.62424,29.24983,29.53977,29.10029,28.1847,28.70964,28.00464,29.76256,31.74022,31.95385,33.49814,34.83794,34.83794,35.11262,36.77592,36.76982,37.31612,39.93774,42.70585,42.48001,41.92456,40.45657,39.67527,38.56131,38.00891,36.5806,36.90716,37.29476,37.30696,36.36697,34.94781,34.40151,33.33944,32.79009,31.18476,32.9671,35.73216,35.61008,35.04242,38.01501,40.01709,42.13209,43.67942,46.43533,48.68461,51.59006,55.20356,56.1985,53.02753,49.28585,48.62052,48.59916,51.63584,53.47311,58.48746,58.86895,54.56876,51.59616,50.98578,48.11085,45.87377,43.19111,42.19313,40.1117,38.56437,39.5593,38.56437,37.47482,35.82982,33.75755,29.83581,26.86321,24.61088,22.44094,18.75725,17.03595,15.63511,14.74089,14.54557,15.20784,13.27901,12.09485,11.37154,9.805897,8.475248,7.947262,7.947262,7.947262,7.950315,7.098822,7.098822,6.329732,5.939083,5.563694,5.606421,6.097784,5.655252,5.282915,4.501617,4.547397,4.547397,4.501617,5.282915,6.946225,7.022523,8.014405,8.014405,8.441677,8.441677,8.023561,8.417262,10.15077,12.02771,12.02771,12.25661,11.80797,11.59739,9.720442,9.543429,7.605444,5.575902,4.675578,3.384606,2.398828,1.30318,0.762986,0.2380516,0.06409083,0,0,0,0,0,0,0,0,0,0,0,0,0,0,0,0,0,0,0,0,0,0,0,0,0,0,0,0,0,0,0,0,0,0,0,0,0,0,0,0,0,0,0,0,0,0,0,0,0,0,0,0,0,0,0,0,0,0,0,0,0,0,0,0,0,0,0,0,0,0,0,0,0,0,0,0,0.8270769,1.373375,2.273698,3.238113,3.592138,4.61454,3.59519,3.943112,4.654215,4.321553,4.327657,3.015321,3.015321,2.688763,3.311359,2.694867,2.40188,1.86779,2.48123,3.781359,3.83019,4.532137,5.264604,5.646097,6.073369,8.047976,8.954404,10.64518,11.94531,12.82122,14.51505,16.29433,18.5955,20.95465,23.80516,24.31484,27.80626,28.85003,28.85003,31.95691,33.58054,34.11158,32.55509,32.54593,32.01184,30.51639,27.57431,24.75432,25.14802,25.14802,25.14802,25.07782,25.07782,26.03308,26.54276,26.54886,27.04938,26.54276,28.47769,27.44918,25.95984,23.57016,19.51413,17.32283,16.19972,15.72972,16.19972,18.2842,18.2842,19.11738,17.8142,18.2842,17.8142,17.68602,16.74907,16.75517,16.74907,17.60666,20.18251,20.59147,22.93231,25.32198,27.29354,27.33016,27.83983,29.38107,31.4686,30.96197,31.48691,29.93957,28.93853,28.93853,26.54886,25.14802,23.82958,22.17237,20.6403,19.17842,17.53952,16.7979,16.33706,14.82024,14.32583,14.32888,15.71141,17.25874,18.04309,20.61283,22.96588,24.47049,24.76347,26.11549,26.11549,28.57535,31.12067,33.22041,34.02917,34.30996,33.22346,34.34963,35.20112,36.06177,36.06177,35.19197,35.19502,36.06482,36.4219,36.75456,33.90099,32.491,31.13593,27.1623,24.89471,22.25478,21.59556,20.45718,19.48056,18.8427,18.36965,16.21803,14.25563,14.25563,13.3492,12.39089,10.50784,9.131416,7.858756,7.08051,5.66746,3.848501,2.877983,1.989868,1.11396,1.080388,0.5676616,0.3418177,0,0,0,0,0,0,0,0,0,0,0,0,0,0,0,0,0,0,0,0,0,0,0,0,0,0,0,0,0,0,0,0,0,0,0,0,0,0,0,0,0,0,0,0,0,0.3418177,0.5676616,0.814869,0.5676616,0.9949338,1.040713,1.0987,0.2319477,0.3479216,0.6164927,0.8667521,1.41305,1.168895,0.7141549,0.4699994,0.4699994,0.07019471,0.05493499,0.7019472,0.7019472,0.711103,0.7141549,1.202466,1.41305,1.361167,0.8667521,0.8667521,0.814869,1.20857,1.794543,1.876946,2.18214,2.63688,3.39071,4.654215,5.957395,7.123238,8.322652,10.41018,12.80596,14.6005,16.6453,19.67588,21.93432,24.94049,26.99139,27.19587,28.56009,29.37801,30.95892,32.24684,32.98846,34.23366,35.3232,36.22963,36.22963,37.88073,38.76884,40.28566,40.21241,39.94079,39.38534,38.7719,38.073,37.28255,36.31508,35.8634,34.9234,32.83281,31.76463,30.68119,29.53977,29.54282,29.45737,27.61399,24.97711,24.81536,23.72886,20.81731,19.82238,19.08686,18.32998,18.33608,18.58939,14.94537,12.29628,8.521028
37.00177,38.10352,37.69456,38.79021,38.32936,39.44333,38.64066,36.36086,34.78911,32.7321,30.82769,27.76353,26.81133,27.15009,26.98224,27.49191,27.49191,28.70964,30.67509,32.18885,32.9671,34.3008,34.3008,34.57547,35.3995,35.93969,37.31612,39.38229,41.57053,40.44741,39.90112,37.86547,38.24086,38.56131,38.56131,38.00891,37.85632,37.69456,37.69456,36.20826,34.40456,32.9671,32.41775,31.36178,31.17561,32.4147,34.24892,33.72704,33.18074,36.59892,39.5593,41.64072,43.24605,45.97143,48.7487,51.56565,55.16389,56.8272,53.71116,49.95727,47.43637,48.04065,50.45474,52.31032,54.15064,58.60954,57.57798,55.14252,52.7498,49.85351,47.0274,43.75267,42.19313,41.14631,40.1117,40.1117,39.5593,38.44229,35.82982,32.79619,28.94769,26.13685,23.45114,22.10523,20.99738,19.73082,17.75621,15.63511,14.29225,13.20271,11.51193,10.21486,9.045962,7.602393,7.147653,6.714277,6.714277,6.714277,6.714277,6.714277,5.920772,5.151681,4.419215,4.068242,4.434475,4.822072,4.461942,3.726424,3.366294,3.729476,3.750839,4.110969,4.861747,5.655252,6.177135,6.726485,6.723433,7.62986,7.62986,6.833303,7.474211,9.305378,11.15791,11.37765,11.59739,11.16096,9.879143,8.475248,7.214796,5.786486,4.01941,3.15571,2.713178,1.486297,0.3387658,0,0,0,0,0,0,0,0,0,0,0,0,0,0,0,0,0,0,0,0,0,0,0,0,0,0,0,0,0,0,0,0,0,0,0,0,0,0,0,0,0,0,0,0,0,0,0,0,0,0,0,0,0,0,0,0,0,0,0,0,0.6805835,0.6500641,0.03967527,0,0,0,0,0,0,0,0,0,0,0,0,0,0,0,0.01220778,1.367271,1.9624,1.968504,2.911555,3.592138,4.974669,4.648111,4.294086,3.967527,3.647073,3.647073,3.308307,2.969542,2.646035,2.969542,3.311359,3.344931,2.450711,2.48123,3.14045,3.83019,4.532137,4.904474,5.643044,5.701032,7.648172,10.0531,10.9809,12.28407,13.16609,14.90569,16.70939,18.12244,21.38192,23.31075,25.27315,27.29354,29.37496,30.89788,33.58664,35.15839,35.15839,33.02203,30.96197,30.47671,28.99652,27.58042,26.09107,25.14802,23.75938,22.34633,21.84276,22.24867,23.13984,23.13984,24.5651,25.5112,25.5112,25.01678,25.45627,23.99438,20.77153,17.68602,15.60154,15.26888,15.26888,15.73277,16.98712,18.2842,18.64433,18.63517,18.63517,18.17127,18.07972,17.12751,17.12751,16.66056,17.49374,18.73894,20.53348,23.38705,25.27925,26.26198,26.30471,26.81743,28.85003,29.38412,28.89886,28.4075,26.93646,26.93646,26.46951,26.03308,24.14088,22.8377,21.68406,19.30965,17.45407,16.87115,16.34316,16.33706,14.55472,14.16712,14.47842,15.39095,16.77959,18.21095,20.29848,21.96789,23.67698,25.19075,26.50003,27.53464,30.06165,32.15528,34.30996,34.84099,35.67112,35.43612,35.20112,34.64872,36.06482,36.62028,35.74132,35.20112,36.95599,37.29781,38.2317,36.21742,34.23366,31.95691,29.26204,25.63633,23.46029,21.59861,20.60978,19.00446,17.88439,16.7979,15.28414,14.36245,14.49368,13.58726,12.57706,10.66044,9.232131,8.304339,7.458951,6.305316,4.623695,3.616554,2.414088,1.440518,1.095648,0.5676616,0.1403894,0,0,0,0,0,0,0,0,0,0,0,0,0,0,0,0,0,0,0,0,0,0,0,0,0,0,0,0,0,0,0,0,0,0,0,0,0,0,0,0,0,0,0,0,0,0,0.1403894,0.3418177,0.5340902,0.8667521,0.9399987,0.4486358,0.06103888,0.01831166,0.2075322,0.6470121,0.9033754,0.6775316,0.7019472,0.4761033,0,0,0,0,0.2472075,0.06409083,0.07324666,0.2594152,0.6775316,0.4425319,0.2258439,0.2258439,0.6164927,0.814869,1.086492,1.358115,1.876946,2.32253,3.0611,4.480254,5.768174,6.924861,8.127327,10.19655,12.35427,13.68797,15.72362,18.72673,21.31478,23.79296,25.8286,25.96594,26.77776,28.32814,30.13184,31.91418,32.98846,33.70262,34.93255,35.59788,36.13502,37.78001,39.17476,40.44131,40.49319,40.49319,39.94079,38.43924,37.12385,36.18385,35.21943,34.8532,33.87658,32.30788,30.70561,30.70561,30.16236,29.59165,29.00568,27.19893,24.6475,23.13984,21.5162,19.35848,17.89965,16.91082,16.16004,15.39401,14.94232,11.84459,8.810963,6.308368
36.91021,38.01501,38.11573,39.20527,39.7882,39.35787,40.01404,37.69456,34.58463,31.65782,29.5062,27.22639,25.60886,25.95068,26.98224,26.98224,27.49496,29.10029,31.12067,31.12067,32.41775,33.21125,34.02917,34.8471,35.3995,35.93359,36.76982,37.37411,39.52573,38.41177,38.41177,39.34261,38.24086,38.24086,37.69456,37.12995,38.41482,37.69456,36.75151,37.12995,34.40762,32.9671,31.56015,31.01691,30.2997,30.65373,31.88671,31.36178,32.79619,36.14112,39.68138,41.71397,44.39053,46.53605,49.33467,53.32967,56.95233,57.47726,54.40395,50.04883,47.54929,45.0467,47.43637,51.12617,52.98785,55.49655,60.63908,57.50168,53.91259,51.01324,47.06403,45.96533,44.39053,44.39053,42.76994,40.66105,38.56437,36.91021,34.27638,31.82872,29.08808,26.27724,24.46133,23.10627,22.2914,20.20997,18.49478,15.64121,13.8131,11.44174,9.659403,8.014405,7.349082,5.981811,5.939083,5.533175,5.566746,6.360251,5.981811,5.563694,4.785448,3.708112,3.714216,3.357138,3.366294,3.366294,3.021425,3.030581,3.030581,2.694867,3.369346,4.080449,4.822072,4.861747,4.919734,5.417201,6.235122,6.235122,5.948239,5.203565,5.786486,8.475248,9.882195,10.73369,10.96258,10.31252,9.049014,7.269731,5.536227,4.208631,2.874931,2.105841,1.767076,0.4547397,0,0,0,0,0,0,0,0,0,0,0,0,0,0,0,0,0,0,0,0,0,0,0,0,0,0,0,0,0,0,0,0,0,0,0,0,0,0,0,0,0,0,0,0,0,0,0,0,0,0,0,0,0,0,0,0,0,0,0,0.0762986,0,0.6500641,0.875908,0.1831166,0,0,0,0,0,0,0,0,0,0,0,0,0,0,0,0.01220778,1.654154,1.9624,1.107856,2.911555,3.592138,3.94006,3.943112,2.969542,3.311359,3.647073,3.647073,3.619606,2.639932,2.328633,2.969542,2.691815,3.058048,3.387658,2.48123,2.813892,3.83019,4.532137,4.901422,5.646097,6.073369,7.996093,9.63804,10.9107,11.40817,13.54758,16.1753,18.47647,19.44394,20.89971,22.80413,24.28127,27.80016,29.83581,32.99152,34.60905,35.2469,35.2469,33.02203,30.96197,29.45737,28.99652,28.01379,26.54276,24.75737,22.84075,20.97601,19.11738,19.51413,21.27205,21.27205,22.63322,23.57322,23.06049,23.49692,22.57218,21.57419,18.91595,17.21297,15.14375,15.58628,15.58628,16.06238,16.52323,17.32283,17.32283,18.63517,19.03498,19.39205,19.3127,17.95764,16.20277,15.73277,17.41134,20.03601,22.37685,23.80516,25.75536,25.75536,24.81841,25.32198,27.34237,28.37392,27.89172,27.89172,26.42984,25.45321,25.01373,24.07068,23.13984,20.094,19.85595,18.07056,16.97186,15.93115,15.41537,15.40621,13.83141,14.54557,14.16712,14.93316,16.77959,18.36965,19.81932,21.47958,23.18257,25.40133,26.71672,28.48685,31.09015,33.77586,33.77586,35.13398,35.97632,36.27235,36.06482,34.98749,36.4219,37.50229,36.62028,36.06482,36.96515,38.24086,38.56437,36.5806,35.12177,32.8145,30.59269,27.67198,23.66783,21.76341,20.60978,18.5314,17.41744,15.28719,13.807,13.91992,13.59641,13.27901,12.38479,10.95648,10.8344,9.805897,7.904535,5.890252,5.234084,3.851553,2.73149,1.50766,1.110908,0.5676616,0.3418177,0,0,0,0,0,0,0,0,0,0,0,0,0,0,0,0,0,0,0,0,0,0,0,0,0,0,0,0,0,0,0,0,0,0,0,0,0,0,0,0,0,0,0,0,0,0,0,0.1342855,0.2288958,0.2319477,0.1495453,0,0,0,0.03357138,0.4150644,0.6470121,0.4425319,0.4547397,0,0,0,0,0,0,0,0,0,0.2441555,0,0,0,0.2075322,0.03662333,0.381493,0.817921,1.498505,1.498505,2.722334,3.94006,5.383629,6.525056,7.886223,9.268754,11.39596,13.61167,15.42758,18.72673,20.81731,22.2914,24.13477,24.44912,25.74315,27.51328,29.44516,31.02301,32.09424,32.98846,34.23366,35.3232,35.8634,38.0669,38.54605,39.94079,39.8828,40.77092,40.21241,37.88988,36.5806,35.64365,35.77489,34.85015,33.87963,31.76158,31.24886,30.71171,30.71171,29.62827,28.55094,26.16432,23.63425,22.12659,19.34627,17.92407,16.95355,15.51303,13.58115,12.11622,11.67369,9.113105,6.634926,4.236098
38.84514,38.92144,39.56235,40.66716,41.23482,40.80144,39.90722,38.48502,35.26826,31.95385,28.97211,26.72587,25.78282,25.61192,26.63432,26.63432,27.84289,30.06165,31.36178,31.36178,31.36178,32.16139,33.48898,34.30996,34.8471,34.84099,35.67418,36.28151,37.50229,37.86547,38.41177,39.35482,38.77495,37.29781,35.8634,36.21742,37.46872,37.29781,36.75761,36.75761,35.82067,34.40456,32.42385,31.89587,31.36178,30.2997,30.97113,31.35567,33.72093,36.14722,39.22359,42.83403,44.94903,47.10676,51.05902,55.72545,56.91876,58.7957,56.26869,51.94409,47.6439,45.1413,45.73949,48.14137,51.22078,53.71116,57.41623,60.60246,56.93707,53.38461,49.33467,48.19935,47.10676,46.02942,42.76689,40.1117,38.01501,35.36593,33.34249,31.41976,29.08808,25.46542,24.11646,23.60679,23.11237,20.51212,17.53952,15.41537,13.14472,10.75505,8.417262,6.824147,5.789538,5.22798,5.194409,5.194409,4.861747,5.282915,4.864799,4.461942,3.72032,2.697919,2.697919,2.395776,2.398828,2.108893,2.08753,2.398828,2.694867,2.395776,2.697919,3.357138,3.72032,3.729476,3.750839,4.916682,5.35311,4.611487,4.321553,4.831227,5.411097,7.507782,8.438625,9.882195,9.052066,7.825185,6.647134,5.566746,4.083501,3.079412,1.876946,1.486297,0.4242202,0,0,0,0,0,0,0,0,0,0,0,0,0,0,0,0,0,0,0,0,0,0,0,0,0,0,0,0,0,0,0,0,0,0,0,0,0,0,0,0,0,0,0,0,0,0,0,0,0,0,0,0,0,0,0,0,0,0,0,0,0,0,0.03967527,0.601233,0.02136361,0,0,0,0,0,0,0,0,0,0,0,0,0,0,0,0.164805,0.601233,0.8453885,1.107856,2.273698,2.588048,2.920711,2.328633,2.05701,2.694867,3.647073,3.308307,3.61045,3.619606,2.639932,2.368309,2.40188,3.39071,3.729476,3.094671,2.218763,3.195385,3.872917,4.590124,6.024538,6.793628,7.996093,9.222975,9.699079,10.9809,13.94738,17.06342,19.37069,20.35036,21.32088,23.25887,25.25179,28.78288,30.91314,32.99152,34.0719,34.606,35.15839,33.02203,31.48996,29.9823,29.53061,28.01379,26.09107,24.25685,21.96484,19.61179,18.17738,18.56498,18.56498,18.56498,20.77458,21.14997,22.0625,21.57419,20.18251,19.68809,17.95764,16.74907,15.9281,15.13764,15.58628,16.86199,16.86199,16.86199,17.32894,19.03498,18.91595,19.3127,20.18251,19.68809,17.87524,16.94439,17.78063,20.95465,22.37685,23.3077,24.26601,24.78179,24.31484,24.81841,27.33016,28.38003,27.89172,27.38204,27.38204,26.41458,24.51321,23.13984,21.3514,19.24861,17.74095,16.80095,16.22413,15.93115,15.41537,14.26479,13.38583,13.6544,13.73375,14.32583,15.7053,17.25874,18.684,20.30458,22.45926,24.68107,26.42678,28.97211,31.35567,33.77586,32.95794,33.77586,34.88067,35.73216,35.52158,34.98138,35.86034,36.96209,36.62028,36.06482,36.4219,37.68541,38.00891,36.04956,34.58463,32.82061,30.59269,27.1623,23.17341,21.28731,19.64536,18.04614,15.87316,14.36855,13.91992,13.01654,12.70219,12.38479,12.09791,11.64927,11.07551,10.40408,8.005249,5.899408,4.873955,3.851553,2.73149,1.736556,1.095648,0.5676616,0.1403894,0,0,0,0,0,0,0,0,0,0,0,0,0,0,0,0,0,0,0,0,0,0,0,0,0,0,0,0,0,0,0,0,0,0,0,0,0,0,0,0,0,0,0,0,0,0,0,0,0,0,0,0,0,0,0,0.1770128,0.4150644,0.2258439,0,0,0,0,0,0,0,0,0,0,0,0,0,0,0,0,0.1403894,0.5188305,1.20857,1.706037,2.722334,3.59519,4.480254,6.143563,7.642068,8.997131,11.2281,13.43466,15.42758,17.76842,19.83764,21.14387,21.94348,23.21919,24.7299,26.66789,28.92633,29.97619,31.02301,32.44217,33.85522,34.94171,35.4819,37.1208,38.27443,39.0954,39.33345,39.54404,38.97943,37.51144,36.04041,35.64365,35.77184,35.40866,33.87963,32.84808,31.77074,30.72087,30.18068,29.10944,27.44308,25.13886,22.63017,19.98413,18.60465,17.68602,16.97491,13.68187,11.10297,9.284014,7.883172,6.525056,5.176097,2.337789
